# .PCD v0.7 - Point Cloud Data file format
VERSION 0.7
FIELDS x y z intensity
SIZE 4 4 4 4
TYPE F F F F
COUNT 1 1 1 1
WIDTH 1142
HEIGHT 1
VIEWPOINT 0 0 0 1 0 0 0
POINTS 1142
DATA ascii
-2.9010293 1.418761 0.046406697 1512.5
-0.25616375 -0.4798944 -0.0097236708 876
-0.6287896 -0.13103771 -0.0038856883 736.75
-0.71279246 -0.13201165 0.00066240504 728.36365
-0.7980302 -0.11787271 0.0014951676 708.40002
-1.0366684 0.12435436 0.0050101131 731.59998
-1.1335323 0.12678814 0.004649967 719.75
-1.1960421 0.16978192 -0.0034858733 905
-1.4663262 0.36624575 0.010670833 716
-1.885087 0.6737287 0.011570062 565.5
-1.9715014 0.67619109 0.0073465742 654.16669
-2.4726226 1.0255363 0.015921719 355
-2.9053843 1.3109899 0.053817291 1410.3334
-4.2403216 2.1694853 0.051093441 142.5
-0.11207116 -0.59903216 -0.007518081 849
-0.15920004 -0.56429958 -0.0069747847 821.66669
-0.23628682 -0.50909734 -0.0067316052 788.70001
-0.32791221 -0.45675457 -0.0055691861 861.5
-0.41436058 -0.41155303 -0.0051720329 902.29999
-0.51008427 -0.37541914 -0.003465781 812.90912
-0.60272974 -0.33016908 -0.0055513494 862.09998
-0.67466038 -0.31471169 -0.0038688239 864.59998
-0.84518677 -0.10560369 0.00062836334 700.75
-0.91861695 -0.080958605 -0.0024891905 763.90002
-1.0268123 -0.06441164 -0.0042159669 842.90002
-1.259962 0.11543918 0.0054725818 769.90002
-1.3498695 0.12861824 0.0013267733 790
-1.5837243 0.35548687 0.0085674338 750.25
-1.6764753 0.35534191 0.0049335435 778
-2.0456526 0.61831856 0.010815676 601.25
-2.0762749 0.62984037 0.0078029558 619
-2.5197883 0.98890805 0.016938463 420
-2.5847125 0.98705053 0.013554059 355
-2.6678672 0.99588871 0.0080285482 432.5
-2.944808 1.246083 0.056459691 328.33334
-3.456599 1.5600715 0.0088080838 76
-0.010372818 -0.87268782 -0.015314614 932.79999
-0.081887841 -0.801893 -0.013764456 912.11108
-0.15269378 -0.74485111 -0.011572938 920.375
-0.2341139 -0.68069422 -0.010607662 930.90912
-0.31710863 -0.62847435 -0.0088575091 892.09088
-0.40485245 -0.57627285 -0.0082768071 848.5
-0.49352193 -0.52448535 -0.0093855206 915.63635
-0.58401239 -0.49393725 -0.0072014593 908.40002
-0.63644743 -0.47429276 -0.0070977658 953
-0.7341063 -0.31188619 -0.00092382729 836.28571
-0.81286871 -0.28456914 -0.0031753127 894.09998
-0.9132297 -0.26333976 -0.0044091698 954.81818
-0.97052467 -0.24453247 -0.0072798561 1007
-1.087007 -0.070342541 -0.0026299916 773
-1.1470937 -0.063576221 -0.0042161047 831.5
-1.2230885 -0.074436426 -0.0027372874 837.25
-1.4146985 0.10044479 0.0045510009 712.125
-1.4942081 0.11968875 -0.0015927702 784.5
-1.6665103 0.31721306 0.011135146 722
-1.7468345 0.29860544 0.010217901 695.28571
-2.1575429 0.57341814 0.010098711 549.42859
-2.7203178 0.94752574 0.0093667433 529.20001
-3.3221047 1.3234849 0.031696174 71
-3.5327418 1.4705989 0.010433171 86.75
-4.6018243 2.1805971 0.034434479 39
-4.6455779 2.1807897 0.032399621 77
0.072560132 -0.9673245 -0.017472085 1058
-0.20217025 -0.86129236 -0.013036931 838.5
-0.30324158 -0.78724194 -0.010053935 824.53845
-0.39207909 -0.72532904 -0.0094346981 856.09998
-0.47053841 -0.67902982 -0.0090109892 843.58331
-0.54837203 -0.6436497 -0.0076650791 814.44446
-0.61356854 -0.48948169 -0.0054560769 847
-0.68711632 -0.4573015 -0.0072029401 948.45453
-0.78566164 -0.43031764 -0.0072727278 980
-0.87796932 -0.41589105 -0.00628962 961.77777
-1.0350566 -0.25503099 -0.0040112883 918.58331
-1.1293352 -0.2538451 -0.0039880127 939.28571
-1.2977844 -0.09239006 -0.00059586763 807.5
-1.3672199 -0.10404968 -0.00016662478 722
-1.5631464 0.065330267 0.0050847307 672.22223
-1.8105991 0.27264595 0.010827348 682
-1.8759553 0.27166224 0.0072993785 758.5
-2.2391977 0.53569984 0.0097164735 598.33331
-2.2902803 0.52912354 0.0072427467 612
-2.8067675 0.88011003 0.01010051 553.66669
-3.6214981 1.4203868 0.0085595734 61.75
-4.6951418 2.1621039 0.030837048 136
-4.7939739 2.1721575 0.025762182 72
-0.28166148 -0.92741907 -0.013899177 881.58331
-0.35679069 -0.87028313 -0.01206902 872.46155
-0.44071826 -0.81301939 -0.011058686 904.71429
-0.52922076 -0.76326251 -0.0099856369 912.53845
-0.59851229 -0.69222093 -0.009189846 897.33331
-0.65748471 -0.59961462 -0.0071114805 778
-0.75480855 -0.57113218 -0.0062543917 800.84613
-0.85667193 -0.5427599 -0.0073684193 895.30768
-0.93513548 -0.40780675 -0.0062558167 965.75
-1.0105617 -0.40506327 -0.0052772854 909.69232
-1.0903023 -0.40328968 -0.0049135163 934.59998
-1.1842809 -0.26082575 -0.0028471425 905.20001
-1.2693939 -0.2613498 -0.0044430122 925.08331
-1.4407012 -0.12249017 0.00072719902 707.45453
-1.5025039 -0.14212227 0.0018831193 756
-1.6692538 0.019920588 0.0075730197 649.5
-1.7506185 0.017114401 0.0032153204 711
-1.9462371 0.22439599 0.009871088 712.5
-2.0060685 0.20700908 0.0084234104 694
-2.347899 0.46438622 0.010876134 547.85712
-2.8787119 0.81062245 0.011561245 1997.25
-3.5701985 1.2154558 0.02439389 65
-3.6953089 1.3439097 0.0089652874 84
-3.7660758 1.3369284 0.0051194578 111
-4.8165197 2.1227052 0.026634697 48
-0.24839011 -1.0558203 -0.017426984 977.83331
-0.32600513 -1.0022624 -0.016257619 907.375
-0.39912122 -0.95091975 -0.012836238 890.54547
-0.48757452 -0.88857663 -0.012011493 900.23077
-0.57312477 -0.84051454 -0.010963643 904.76923
-0.65984595 -0.77018929 -0.010736173 944.61902
-0.71811914 -0.70358968 -0.0084026195 935.8125
-0.813555 -0.65740335 -0.008299727 974.28571
-0.90233946 -0.62732995 -0.0087395068 997.81818
-0.97332686 -0.52548933 -0.0074127614 884
-1.0667942 -0.52044833 -0.007103052 884.33331
-1.1479411 -0.40078092 -0.0057817213 933.5
-1.2274703 -0.40652156 -0.0056315977 915.70001
-1.332957 -0.26562262 -0.0053265523 958
-1.394347 -0.28335917 -0.0038511641 947.08331
-1.5703559 -0.15872204 0.0014108047 751.16669
-1.6393952 -0.17197049 -0.000229083 796
-1.7449715 0.00081038475 0.0063483007 654.5
-1.8137891 0.012881279 -0.00030520931 737.14288
-2.0790873 0.18194652 0.0067377612 720.14288
-2.1187911 0.20207191 0.0010360666 818
-2.4251642 0.42090511 0.010368984 563.75
-2.481436 0.40489936 0.0079844296 553.66669
-2.8808434 0.69378281 0.021523621 2820.3333
-3.7694638 1.3015118 0.007056199 95
-3.8273032 1.2907648 0.0041130781 102
-5.0033674 2.0741546 0.019373991 58
-0.17787871 -1.1595228 -0.019697558 992.71429
-0.22704032 -1.1033734 -0.017721655 938.66669
-0.46894503 -0.99178946 -0.013171103 755
-0.53881997 -0.94796944 -0.011595309 732.76923
-0.61390877 -0.90919447 -0.0098251756 750.53845
-0.71049315 -0.86458063 -0.0094375703 747.41669
-0.78350753 -0.79646719 -0.0091381855 872.17389
-0.86748397 -0.73212421 -0.010581942 994.125
-0.96285856 -0.6937331 -0.0088005364 960.94116
-1.0361431 -0.62865257 -0.0068311188 986.8125
-1.119226 -0.57555449 -0.0063058957 868.09998
-1.2088101 -0.52717757 -0.0065039713 855.6875
-1.2973998 -0.41897023 -0.004541209 888.16669
-1.3715456 -0.43096936 -0.0047962889 946.36365
-1.4770753 -0.31462479 -0.0010105483 859.33331
-1.5362122 -0.33658075 0.00015530363 892.42859
-1.7005205 -0.19308472 -0.00052228943 781.90912
-1.8852472 -0.067322969 0.0077774897 644.55554
-1.94188 -0.087013721 0.0064678229 640
-2.1517978 0.11505151 0.010466646 678.5
-2.1812491 0.10931015 0.0088419281 691
-2.5498271 0.36168218 0.0074079186 583.14288
-2.882982 0.5841074 0.030692916 2988.75
-3.8877196 1.243952 0.0030680858 88.666664
-0.6863097 -0.95224464 -0.0084222984 690
-0.75138658 -0.92508769 -0.0081398934 655.70587
-0.85078913 -0.87952507 -0.0071946736 707.17389
-0.91714656 -0.8227905 -0.0072698873 753.68182
-1.0110928 -0.78319705 -0.0064449664 821.5
-1.0893809 -0.71539605 -0.0079133324 956.22223
-1.1750275 -0.65277314 -0.0066130795 955.3125
-1.2549629 -0.62886119 -0.0056500081 932.66669
-1.3444895 -0.55118167 -0.0051445793 876.6875
-1.4316839 -0.46785617 -0.0052875448 955.79999
-1.5005506 -0.46136796 -0.0053024739 971.90912
-1.6084459 -0.35222208 -0.001684919 888.5
-1.6678662 -0.3641479 -0.0039847866 908.79999
-1.7753065 -0.23803222 0.0021738969 707.20001
-1.8286645 -0.26267374 0.0021033771 703.33331
-2.0049171 -0.10842705 0.0044055693 718.5
-2.2598078 0.069378853 0.0075476654 689.14288
-2.3300359 0.077610016 0.00023417547 792
-2.6092978 0.30526876 0.0086617507 590
-2.6690185 0.291188 0.0051110461 672.5
-2.761863 0.33290625 -0.0072273742 923.5
-2.8743474 0.46610689 0.041168626 3254.6667
-3.7812626 1.017611 0.023020804 56
-3.9192107 1.1468313 0.0066386983 71
-0.97111773 -0.87223601 -0.0064222403 683.21429
-1.0697985 -0.85115314 -0.0044486057 750.03845
-1.1497687 -0.80983555 -0.0042694751 782.14288
-1.2297788 -0.73410237 -0.0071433559 918.47058
-1.3111842 -0.68788123 -0.0063544735 927.75
-1.3890615 -0.65978444 -0.0076652057 970.63635
-1.4689646 -0.5854311 -0.004265707 861.42859
-1.5800779 -0.48809385 -0.0052799527 939.375
-1.6362474 -0.51424551 -0.0043396614 944.5
-1.733717 -0.41216922 7.2389841e-05 856.18182
-1.916754 -0.29033422 -0.001348801 740.63635
-2.0869808 -0.17013025 0.0064346232 724.28571
-2.1336315 -0.19677281 0.0058583282 736
-2.3381917 0.0015466213 0.0092779174 634
-2.4130564 -0.011008501 0.0036864281 743
-2.7609682 0.22420239 0.0038948841 847
-2.7869458 0.31042814 -0.007145321 989
-3.0032287 0.38301969 0.0381887 142.5
-3.2512774 0.57479835 0.0037308447 131.5
-3.3017218 0.59386539 -0.0017434135 115
-3.4955974 0.69658303 0.017582785 1319
-3.971751 1.0034769 0.011196084 756
-3.9702194 1.0549374 0.0084581524 647.5
-4.4067183 1.3343275 0.076802149 668.5
-5.17554 1.8639061 0.018298682 117
-1.2022333 -0.87208545 -0.0052990131 702.14288
-1.2859284 -0.82875979 -0.0040664691 721.6087
-1.375313 -0.76044345 -0.0077285469 905.6875
-1.4550295 -0.71222115 -0.0058108605 921.71429
-1.5302136 -0.66797245 -0.0050160624 894.5
-1.6070955 -0.63019443 -0.0058746599 841.08331
-1.7146685 -0.54405963 -0.005859673 984.15387
-1.7946734 -0.44110525 -0.00011432543 863.66669
-1.849833 -0.46014106 -0.0024313666 905.77777
-1.970865 -0.33664143 0.0013172515 689.5
-2.0183542 -0.36143374 0.00031444058 701.5
-2.1913223 -0.22863317 0.004511185 763.66669
-2.4685695 -0.063332796 0.0045503788 754.57141
-2.8085914 0.17539454 0.0043474399 996.33331
-2.8500102 0.1654036 0.0014580674 1171
-3.294431 0.52651095 0.0039743409 121
-3.4428029 0.61079264 -0.014494831 363.5
-3.9835787 0.96302176 0.012599595 774.5
-5.1998801 1.7950704 0.019430611 99
-5.2591319 1.7798419 0.016825724 78.5
-1.3454483 -0.9039824 -0.0033730846 660.81818
-1.4242146 -0.85486102 -0.0044602938 778.75
-1.5105453 -0.80023992 -0.0063742418 936.73682
-1.6014684 -0.74109805 -0.0062810127 955.8125
-1.6972146 -0.67546082 -0.0054716989 848.15387
-1.769119 -0.57310104 -0.005646782 948
-1.8145766 -0.59980226 -0.0056267306 949.36365
-1.9333439 -0.5178473 -0.0012698211 903.16669
-2.0960121 -0.40890133 -0.00088422745 738.77777
-2.2778406 -0.29270601 0.0040817931 719.22223
-2.3323946 -0.32017446 0.0014799498 800
-2.5370021 -0.12739587 0.0049853325 770.40002
-2.5708122 -0.10249853 -0.0015642941 873.5
-2.8569548 0.076292276 0.0093016066 3210.6001
-3.3757989 0.41157413 0.0056969933 156.5
-3.9993351 0.82621312 0.018802535 855.66669
-5.199553 1.5970049 0.02615821 70
-1.4700606 -0.93668568 -0.0046658125 713.95654
-1.5465395 -0.89507353 -0.0046127792 777.22223
-1.6328814 -0.83800769 -0.0086375903 979.4375
-1.7119987 -0.79261518 -0.0060962606 934.07141
-1.7956879 -0.73053193 -0.0062672459 823.61536
-1.9044411 -0.65572083 -0.0063350629 937.84613
-1.9976344 -0.56012332 -0.0017535053 883
-2.045392 -0.5845654 -0.0040482692 952.14288
-2.1656244 -0.47664917 0.0012251697 734.66669
-2.2142487 -0.50960708 -0.00017530844 781
-2.3709812 -0.38580716 0.005629357 699
-2.366123 -0.36004448 0.0027337298 743.42859
-2.5943935 -0.20150876 0.0071763806 731.16669
-2.666816 -0.20443153 -0.00080646574 847.5
-2.8543673 -0.063446283 0.022521198 3619
-2.8546159 -0.007584095 0.017381489 3694.5
-3.4221623 0.37455893 0.0043861456 234
-3.4617214 0.34407496 0.0030660965 156.5
-4.0690269 0.7587595 0.017342426 177.2
-5.195601 1.4462912 0.031284567 60
-5.2302523 1.5373619 0.026455555 50.5
-1.546623 -0.97896898 -0.0046201181 667
-1.6228906 -0.97289765 -0.0054713544 735.06897
-1.7179177 -0.90187609 -0.0091197062 936.4375
-1.79457 -0.85225213 -0.0072137695 956
-1.8765128 -0.79715359 -0.0042358488 828
-1.9770603 -0.71285057 -0.0059518944 944.875
-2.016717 -0.74761021 -0.0057299118 947.5
-2.104337 -0.64958727 -0.001389578 896.09088
-2.2571273 -0.54967117 -0.00019003078 764.22223
-2.4438813 -0.42955458 0.0018377937 733.77777
-2.7121918 -0.20783484 -0.0057658367 917.66669
-2.7775664 -0.22303462 -0.011984836 1167.2
-2.8594174 -0.14389694 0.029203784 3811
-3.5375683 0.28582907 0.00028191134 138.5
-3.572088 0.34980464 -0.0070835017 136
-4.1509233 0.7329402 0.012750432 91
-1.6716259 -1.0466379 -0.0058702901 711.90002
-1.7469661 -0.99781477 -0.0065599717 820.84998
-1.8422015 -0.94210696 -0.0078293476 940.63159
-1.9323332 -0.8767122 -0.0068959147 920.58331
-1.9845915 -0.88020325 -0.0064759199 892.20001
-2.0669265 -0.79652584 -0.0053981971 941.08331
-2.1835592 -0.71895146 -0.0025363863 886.81818
-2.3327341 -0.61708224 -0.0016555898 733.59998
-2.5154362 -0.50225937 0.0011425316 749.125
-2.8038685 -0.352211 -0.0020150989 1036.6666
-2.8118279 -0.27870166 -0.010417573 1312
-3.5936172 0.20993805 0.00013750792 134.8
-3.9978473 0.4257009 0.038772222 263
-4.1272717 0.55756903 0.022942472 76
-1.7489672 -1.1207844 -0.0054906197 672.52942
-1.8070505 -1.0796317 -0.0068247523 747.125
-1.8804405 -1.0352113 -0.009602081 950.20001
-1.9522846 -0.98720634 -0.0079784747 966.85712
-2.0318911 -0.93498051 -0.0053134263 851.84613
-2.1351638 -0.87051332 -0.0050114896 927.54547
-2.256053 -0.7888602 -0.0040961374 884.59998
-2.4039161 -0.68941569 -0.0030018277 758
-2.576329 -0.57573545 0.0010623559 760.125
-2.8339787 -0.40840089 -0.00041616336 1666.1666
-2.9833233 -0.33304918 0.031608101 210
-3.1863551 -0.20073915 -0.0016219355 214
-3.215102 -0.20933223 -0.0042282436 227
-3.6374295 0.16866732 -0.0013106838 152
-3.7391942 0.1716907 -0.011094106 183.33333
-3.7645814 0.24337006 -0.017872689 261
-4.0178418 0.39832735 0.038537126 437.5
-1.8082807 -1.17943 -0.0058234315 667.54547
-1.8684447 -1.1704338 -0.0071343407 718.81818
-1.9489152 -1.1079388 -0.010255473 937.71429
-2.0202723 -1.0606633 -0.0087769125 948.38464
-2.1038578 -1.0100036 -0.0071073528 843.23077
-2.204813 -0.94297421 -0.0070867483 953.33331
-2.3137927 -0.86224151 -0.0039611105 915.33331
-2.3441961 -0.8905288 -0.0057729762 948
-2.4673488 -0.76856279 -0.003487803 745.79999
-2.6446879 -0.65114784 -0.0008652322 796.77777
-2.839133 -0.575845 0.014285758 3552
-2.8427019 -0.506235 0.0075696632 3659.5
-3.2826703 -0.23079574 -0.010421336 263.75
-3.3284914 -0.19660676 -0.018232834 347.5
-3.4883657 -0.089435339 0.028484713 1761
-3.4918685 -0.064120293 0.026651293 794
-3.6236033 -0.013420105 0.01098866 232
-3.7220538 0.021583796 -0.00058661401 139
-3.9344325 0.13430071 -0.027736954 302
-4.1988106 0.3184216 0.02820532 344
-4.3837075 0.47801828 0.0070291236 54
-1.910712 -1.2535709 -0.0068371966 701.12122
-2.0104132 -1.1867139 -0.010893459 925.06665
-2.0807121 -1.1403545 -0.0092021637 937.07141
-2.1653929 -1.0888996 -0.0081944726 843.66669
-2.2660286 -1.0226537 -0.0081422832 959.27271
-2.3631487 -0.93263519 -0.0038686823 875.79999
-2.3967764 -0.96286392 -0.0066899695 915.40002
-2.5325706 -0.84662747 -0.0056790672 750.22223
-2.745466 -0.70510018 -0.011059564 1095
-2.8439047 -0.62879312 0.018181484 3635.6001
-3.2908103 -0.33632886 -0.0037535746 281
-3.3118508 -0.33366919 -0.0064669419 280.20001
-3.7717228 -0.040015459 -0.0020093285 182.75
-1.9652977 -1.3389856 -0.0073651578 730.51514
-2.0633729 -1.2712085 -0.01108486 918.42859
-2.1412196 -1.2246361 -0.011552239 927.57141
-2.2261837 -1.1689156 -0.011199318 853.76923
-2.3421135 -1.1070437 -0.013957467 969.5
-2.3693476 -1.0612999 -0.025915649 1123.2858
-2.4625738 -1.0151309 -0.013934014 993.59998
-2.5737782 -0.94216311 -0.029190153 1123
-2.663877 -0.87846243 -0.026190214 1067.5
-2.7023878 -0.85434711 -0.035759509 1263.6
-2.8078144 -0.78144789 -0.013926005 1366.375
-3.3768919 -0.36787403 -0.011924842 263.5
-3.8135195 -0.083598852 -0.0038088821 159
-1.9911776 -1.4594016 -0.0085852444 672.90912
-2.0206015 -1.4144022 -0.0075700935 742.59088
-2.1100602 -1.3592315 -0.011921674 930.86664
-2.1831524 -1.3156524 -0.010532826 931.53845
-2.266983 -1.2609428 -0.0097390302 822.91669
-2.3705294 -1.1894157 -0.010841334 954
-2.4881482 -1.1269696 -0.0072773583 902.5
-2.4792018 -1.0766495 -0.010526512 956.33331
-2.6313882 -1.0237718 -0.0059038997 756.66669
-2.8036697 -0.91056466 -0.0021265298 829.375
-2.8015499 -0.84973311 -0.0068225376 934
-2.9569519 -0.75889158 0.012423508 2383
-3.0825667 -0.78100753 -0.0044994112 724
-3.0926414 -0.73582768 -0.009123696 786.25
-3.2017891 -0.63211703 -0.032538708 942
-3.4703541 -0.51565075 -0.014194354 873
-3.5236616 -0.45609462 -0.02441901 1119
-3.8961484 -0.23058283 -0.0047972426 499
-2.0226994 -1.539886 -0.0098527949 673.35297
-2.0781882 -1.5048089 -0.0092345532 746.0625
-2.1531863 -1.4564879 -0.013639772 935.4375
-2.2283542 -1.405844 -0.011134379 922.20001
-2.2997663 -1.3527354 -0.0084216595 826.16669
-2.4099333 -1.2820766 -0.010842787 961.27271
-2.522985 -1.2123599 -0.0069388878 924.27271
-2.6752632 -1.1149497 -0.00665465 708.79999
-2.8484221 -1.0031089 -0.0027313083 1408.25
-2.8790488 -0.97308397 -0.010198459 963
-3.1144686 -0.83440781 -0.0057751983 728.16669
-3.1204331 -0.77649212 -0.010442369 845
-3.4427309 -0.60583878 -0.0055505112 709.40002
-3.4816566 -0.58486223 -0.01173288 795
-3.7972405 -0.37500179 0.012236856 3142
-3.8730018 -0.33350182 0.0024028905 1168
-3.9190722 -0.28577471 -0.0046257153 737
-2.0526619 -1.6410677 -0.010614414 711.6842
-2.1319904 -1.5919999 -0.011484677 840.36365
-2.2244 -1.5276303 -0.013233947 965.75
-2.3122036 -1.4605043 -0.010885827 896.11768
-2.3292444 -1.4039538 -0.011580681 944
-2.4460907 -1.3803878 -0.011535937 999.46155
-2.558392 -1.3060585 -0.0074059833 912.59998
-2.7081063 -1.2107066 -0.0061154496 727.33331
-2.9054737 -1.0807964 -0.0074853525 844.42859
-3.1597133 -0.91243792 -0.0079225469 747.28571
-3.5285709 -0.70903015 -0.011212522 696
-3.5297313 -0.66732311 -0.013467198 740.5
-4.0001612 -0.36635935 -0.0095951091 817.25
-4.969954 0.26555324 -0.032136559 421
-2.111227 -1.7131763 -0.017844282 783
-2.210736 -1.6513069 -0.017519834 1005.8666
-2.2834342 -1.6048069 -0.014469462 1025.4286
-2.3641644 -1.5516045 -0.010973925 867.30768
-2.4739909 -1.4857595 -0.011706334 1004.5833
-2.5920281 -1.4053273 -0.0087440182 905.33331
-2.7555311 -1.3456609 -0.0077516194 829.5
-2.7380848 -1.2956069 -0.0068918876 778.875
-2.9585762 -1.1633353 -0.012165293 643.11108
-3.2012284 -1.002847 -0.0094460007 749.16669
-3.2347019 -0.97155356 -0.016263861 858
-3.5438151 -0.78308141 -0.0097117107 671.83331
-3.9881017 -0.50410724 -0.0027189031 2230
-4.0112228 -0.46037722 -0.0069465805 1849
-4.7849965 0.0059478283 -0.0082254205 211.5
-4.9732757 0.16066504 -0.028989643 305.5
-2.1447527 -1.8724643 -0.042102333 869.5
-2.1439338 -1.8183115 -0.041358743 872
-2.2604747 -1.7180264 -0.043237612 1061.2
-2.3234036 -1.7070867 -0.042002313 1181.5625
-2.3960948 -1.6472276 -0.015953202 972.58331
-2.4884186 -1.5804226 -0.010955395 1004.7
-2.6186099 -1.5101631 -0.0098454151 950.5
-2.6316414 -1.4990551 -0.013376528 1029.25
-2.7643459 -1.4144778 -0.0064227171 804.09088
-2.9846003 -1.2696967 -0.011629384 655.77777
-3.2417955 -1.0963963 -0.011417072 745.75
-3.588872 -0.87937319 -0.011584612 651.57141
-4.0299048 -0.56037021 -0.0051694382 677
-4.0717387 -0.56910419 -0.0094578732 649.5
-4.352304 -0.37150598 0.039825048 2609
-4.9899673 0.034991503 -0.026562497 297.66666
-5.1889644 0.16028857 0.065081656 18
-2.1377923 -1.9529412 -0.04257337 861
-2.3179557 -1.8362732 -0.095960923 1172
-2.3636549 -1.7825089 -0.073539123 1385.9375
-2.4824169 -1.7195437 -0.064481221 1511.875
-2.5584555 -1.6631024 -0.03350104 1293.5454
-2.6399777 -1.5996721 -0.011963943 1023
-2.7539847 -1.5799789 -0.014713977 1129.2
-2.7736235 -1.5093272 -0.0048251506 840.28571
-3.0176532 -1.3883269 -0.013146557 651.20001
-3.0274246 -1.3522544 -0.016268153 699.75
-3.2791953 -1.2375414 -0.011923214 714
-3.2811227 -1.1863701 -0.014065474 769
-3.6256969 -0.97071779 -0.013093429 677.40002
-4.1220384 -0.6504283 -0.012270527 507.79999
-5.0209203 -0.0090324879 -0.027938452 260
-5.2778873 0.12508965 0.060107592 33.5
-2.069726 -2.1502151 -0.034164663 797.85712
-2.1017237 -2.083324 -0.038658515 812.75
-2.1536791 -2.0331311 -0.040618271 908.5
-2.2907565 -1.9669139 -0.10280037 1175
-2.3524208 -1.9266391 -0.094589725 1285.9
-2.4158993 -1.8533565 -0.084221661 1616.8334
-2.5387433 -1.7998708 -0.087179005 1724.5834
-2.6041617 -1.7519364 -0.055179283 1619.5652
-2.7047575 -1.7013378 -0.02566497 1322.2858
-2.7872992 -1.6425265 -0.01680102 1415.4
-2.8046267 -1.5892727 -0.0093833655 1204
-3.026243 -1.4825919 -0.012094473 623.66669
-3.2980814 -1.3023068 -0.013021879 677.42859
-3.3131785 -1.2571454 -0.016818097 738
-3.6672099 -1.095076 -0.014795436 723
-3.6596529 -1.057425 -0.014897443 667.5
-4.1577559 -0.74875772 -0.013283594 479.75
-4.1554213 -0.72304034 -0.013750056 481
-5.0576887 -0.16642153 -0.026910966 301.33334
-5.0648146 -0.10574865 -0.029089916 275
-5.321909 -0.025611877 0.059854958 28
-2.0309305 -2.2560577 -0.023065802 724
-2.0655162 -2.2244475 -0.029678421 740.80951
-2.1358202 -2.1727867 -0.035346985 861.5
-2.3013368 -2.1198297 -0.088267431 1219.3334
-2.3349435 -2.068126 -0.089307219 1311.4736
-2.38342 -1.9927018 -0.082732901 1485.75
-2.5319562 -1.9493957 -0.096455432 1855.6666
-2.5818624 -1.8869474 -0.089732386 2002.3529
-2.6492858 -1.8460442 -0.069091305 2131.3
-2.737685 -1.7869166 -0.03337229 1572.7
-2.8200419 -1.7362024 -0.011103839 1929.2727
-3.0041425 -1.6183956 -0.0054081976 498.33334
-3.3209441 -1.3988278 -0.014351703 707.42859
-3.7013955 -1.1708894 -0.017549988 681.20001
-3.6991088 -1.1201769 -0.018522372 701
-4.183228 -0.83988976 -0.01371133 473.79999
-5.0316391 -0.26235807 -0.022281788 247.33333
-5.0811257 -0.29883075 -0.025804779 265
-1.979867 -2.4221632 -0.025648121 802
-2.0972373 -2.3737819 -0.026133602 864.66669
-2.13901 -2.3255262 -0.031100113 949.09088
-2.2356195 -2.2513056 -0.07464049 1141.4
-2.3058121 -2.1831238 -0.080345958 1311.619
-2.3426898 -2.129262 -0.073350087 1457.1428
-2.5063984 -2.0875831 -0.095327139 1714.5
-2.5540488 -2.0286362 -0.088206157 1835.5294
-2.6267722 -1.9762455 -0.06458874 1833.4117
-2.7337246 -1.9127964 -0.059533909 3088.5715
-2.7945945 -1.8655655 -0.020720266 2770.9412
-3.2437985 -1.5897883 0.0014079139 279
-3.2911499 -1.4881005 -0.0077199191 637
-3.3475075 -1.4575223 -0.017601158 744
-3.7094381 -1.2702 -0.016518129 623.57141
-4.194067 -0.98143148 -0.011707794 410
-4.1975589 -0.91864741 -0.013457263 458
-5.0500317 -0.36645496 -0.021563482 243.66667
-5.1272545 -0.39354873 -0.027874999 225
-1.2190421 -3.0074606 -0.047239084 983
-1.9597993 -2.5656855 -0.029249197 897.375
-2.023129 -2.5041971 -0.029705608 928.38464
-2.101963 -2.439635 -0.026717141 891.78949
-2.1925366 -2.3959885 -0.028652271 906.64288
-2.2707009 -2.3222342 -0.059146341 1149.5834
-2.3219106 -2.2683902 -0.081277035 1402
-2.5203352 -2.1770859 -0.095787972 1738
-2.603205 -2.1147709 -0.068524323 1719.2858
-2.6921 -2.0580571 -0.042485654 1551.2727
-2.7737024 -1.9971652 -0.026761418 1900.3636
-2.8112271 -1.9468706 -0.011472495 2531.3999
-3.7204959 -1.3847864 -0.01621595 567.57141
-4.1958079 -1.0217475 -0.011116385 440
-4.2470794 -1.0492308 -0.016544789 439
-5.0713038 -0.49585342 -0.020860342 211
-5.0809817 -0.47428882 -0.022149283 199.66667
-1.8243504 -2.722075 -0.033164922 979
-1.9056129 -2.6426718 -0.030976979 948.33331
-1.9948115 -2.6368558 -0.030395146 964.71429
-2.0773742 -2.5693877 -0.028401248 936.63635
-2.1551478 -2.5249531 -0.026831878 895.66669
-2.2513018 -2.4796324 -0.026603356 841.85712
-2.3097723 -2.4001172 -0.030439872 875.79999
-2.4685504 -2.3737571 -0.10562412 1566.5
-2.5024221 -2.30387 -0.10324883 1712.6471
-2.585525 -2.2525163 -0.076774418 1707.95
-2.6509924 -2.1942275 -0.050618991 1538.9091
-2.7269943 -2.1444302 -0.035949528 1420.25
-2.8152723 -2.095891 -0.017460948 1647.7273
-3.7654798 -1.4439461 -0.02191449 171
-4.383018 -1.0360112 -0.03252979 540
-4.5857978 -0.98673439 0.030732151 1455
-5.1071815 -0.60582101 -0.022186961 230
-5.1424603 -0.52668035 -0.026710941 277
-1.229353 -3.2353773 -0.05924575 871
-1.2787538 -3.2519386 -0.065839171 992
-1.9760623 -2.7055221 -0.033518653 1029
-2.1476595 -2.6377256 -0.028076604 880.20001
-2.1830046 -2.5895057 -0.027679684 835.85712
-2.3269653 -2.5865293 -0.027969021 918.44446
-2.3850887 -2.5128095 -0.031080598 951.16669
-2.4544675 -2.4290621 -0.061111987 1290.3334
-2.5589075 -2.3872654 -0.081365161 1692.1111
-2.636775 -2.336206 -0.054353081 1536.6
-2.6968496 -2.2621181 -0.041716527 1395
-2.7987442 -2.2226686 -0.0203894 1037.0909
-3.8679509 -1.5147454 -0.03603746 103
-5.0880141 -0.74467039 -0.018369071 235
-5.1105227 -0.6852299 -0.02125934 229
-1.1935163 -3.3547206 -0.057995401 395.5
-1.2469938 -3.3367753 -0.066134162 948.44446
-2.1557512 -2.8203335 -0.031608142 893
-2.1991839 -2.7696261 -0.03087835 951.40002
-2.269944 -2.6698949 -0.02837155 950.90002
-2.3044336 -2.629575 -0.029439697 1006
-2.47751 -2.6041975 -0.026758797 900.83331
-2.5293965 -2.5436411 -0.030514069 989.40002
-2.5962074 -2.4684262 -0.046681568 1344.9166
-2.653121 -2.4073818 -0.043712579 1331
-2.7808218 -2.361958 -0.025998887 1074.8182
-2.7954144 -2.2933295 -0.024079354 979
-4.1727653 -1.4972534 -0.0034306217 407
-4.2854118 -1.345046 -0.017423548 394
-5.1151509 -0.80307877 -0.020115666 236
-1.1824129 -3.5044303 -0.058626778 761
-1.2249825 -3.5121193 -0.06125883 828.40002
-1.2601199 -3.4145589 -0.076173753 1137
-1.9782612 -3.006778 -0.038883515 1018
-2.072032 -2.9177849 -0.035556037 991
-2.1354377 -2.855834 -0.034703307 940.20001
-2.3933671 -2.7449269 -0.029037898 957.5
-2.4501648 -2.6439922 -0.026230114 954
-2.7122207 -2.5666847 -0.030010751 1052.3334
-2.7433159 -2.4974809 -0.029659204 1155.0909
-2.7682042 -2.4316392 -0.02887986 1203.5
-5.1329951 -0.9684726 -0.020067733 341
-5.1434197 -0.90099955 -0.021650892 293.33334
-1.2932544 -3.5833104 -0.1022934 1367.1666
-2.2203276 -2.9680927 -0.034287237 886.66669
-2.2677777 -2.9137402 -0.032787222 884.75
-2.3210816 -2.8415005 -0.030254919 900
-2.5753539 -2.7647607 -0.026248712 757.28571
-2.6265681 -2.6921673 -0.027019411 762.88892
-2.6827176 -2.6184182 -0.029592391 855.5
-5.1522779 -1.0419719 -0.021313101 323.25
-1.2637458 -3.7355175 -0.07204935 549.5
-1.3059235 -3.6452129 -0.096922919 1427
-1.7276299 -3.3458695 -0.048400268 111
-1.8133891 -3.3058786 -0.047733657 204.5
-2.3408809 -3.0437098 -0.068949796 1128.3334
-2.4355474 -2.9833024 -0.032319538 732.5
-2.5285137 -2.8452015 -0.028295238 760.33331
-2.5461202 -2.8184266 -0.027847536 766.66669
-2.8595188 -2.6453846 -0.020278849 782
-5.1291656 -1.1869781 -0.018404735 238
-5.141974 -1.1210917 -0.019882036 283.5
-1.2300539 -3.8474183 -0.097151205 119
-1.3176467 -3.7460718 -0.075637907 1061
-1.9653208 -3.4277034 -0.048067383 611
-2.3331327 -3.1166487 -0.037433602 776.59998
-2.4009337 -3.0465481 -0.036610559 797
-2.4466851 -2.9998569 -0.036669277 774
-2.7851541 -2.8487079 -0.028130826 805
-2.8201954 -2.7585089 -0.02443297 755
-2.8443522 -2.7440772 -0.027121469 770
-5.2249427 -1.2231063 -0.027277093 42
-1.2243717 -3.9629688 -0.12362072 103
-2.5884905 -3.1371586 -0.033320028 782
-2.709456 -2.9642873 -0.029261159 754
-2.3767622 -3.3842664 -0.041751221 752.66669
-2.4469912 -3.3187947 -0.040382713 784
-2.5086815 -3.2377567 -0.063974127 1036.2858
-2.5458312 -3.188159 -0.08244992 1186
-2.5794604 -3.3061261 -0.056266524 1082
-2.6436632 -3.3055027 -0.065150604 1187.6
-2.9488134 -3.114162 -0.030344874 667
-2.8044837 -3.3432267 -0.037531219 760.14288
-2.7007129 -3.4958601 -0.044355307 1001
-2.755784 -3.4313776 -0.042551924 1136.1428
-2.1375403 -3.9532311 -0.058001406 110
-2.5411108 -3.7508869 -0.062452186 864
-2.5879028 -3.7155247 -0.06219149 864.79999
-2.6831791 -3.6689291 -0.065906271 1113.2
-2.7186215 -3.6090903 -0.061658502 1392.5
-2.6832626 -3.7500377 -0.077286452 1394.5
-3.2290339 -3.4047289 -0.036515921 537
-3.2958846 -3.3723755 -0.04129507 582.5
-3.1744816 -3.4957573 -0.039267447 610
-3.1592999 -3.677753 -0.056635391 895
-3.2263157 -3.6460032 -0.060566895 871
-2.3999064 -4.2946081 -0.065947846 19
-2.4665823 -4.2399187 -0.063057229 230
-2.5078702 -4.2434506 -0.066535734 518
-2.66695 -4.1440105 -0.065583453 691
-2.7054815 -4.0957127 -0.062517881 838.5
-2.725163 -4.0224438 -0.054782808 1397
-3.2867923 -3.6968918 -0.072586328 940.5
-3.362797 -3.6910939 -0.08043474 941
-2.4612997 -4.3727388 -0.080993503 62
-2.5159059 -4.2913742 -0.073653758 435
-2.6004491 -4.2964029 -0.080616385 685.40002
-2.6648202 -4.2344127 -0.077325836 808
-4.5041914 -3.3174586 -0.098311707 980
-1.7421441 -5.232204 -0.088545017 236
-3.5431669 -4.0460696 -0.056348544 1143
-3.6127458 -4.0129104 -0.059596974 905.75
-3.6663916 -3.9648345 -0.060239915 715.33331
-4.4970322 -3.3639925 -0.10031168 985
-4.6043725 -3.3617501 -0.018633939 2876
-3.5612402 -4.0624104 -0.059444599 1136
-3.7300913 -3.9637332 -0.066048518 743
-3.8115947 -3.9614344 -0.073506206 862.25
-3.8706279 -3.9401209 -0.07730256 882
-4.5794811 -3.4658515 -0.068483189 1877.1666
-4.5979881 -3.3973427 -0.019847821 2806
-2.7095959 -4.7688065 -0.070358276 812.5
-3.9447734 -3.9553037 -0.085671142 924
-4.0363336 -3.9815321 -0.096659631 784
-4.5909362 -3.617255 -0.030748563 2681
-4.5912595 -3.5478764 -0.045889132 2397.8
-2.7558038 -4.8312206 -0.16484599 131
-4.0784965 -3.9705262 -0.099859864 868.5
-4.1605678 -3.9590175 -0.10697351 772
-4.5898714 -3.6846013 -0.034383517 2691
-4.2077198 -4.0197945 -0.1164553 792
-4.3088107 -4.0323248 -0.12740587 814
-4.5867639 -3.8076792 -0.041132748 2657
-4.5856147 -3.7510777 -0.037771612 2652
-4.3668127 -4.0726757 -0.039684489 1443.6666
-4.590744 -3.9098096 -0.047490805 2556
-4.4854083 -4.0784054 -0.049418703 974
-4.5830016 -4.0371203 -0.054634236 2352.8
-1.9226964 -6.1886692 -0.10768791 120
-1.4634938 8.7530632 0.26742166 62
-1.5615095 8.7597313 0.26724255 40.5
-3.086874 9.3639231 0.25795758 4569
-3.1510828 8.9526291 0.26113954 4522
-3.0286906 8.6591053 0.2641072 4476
-3.0596919 7.8211441 0.27096659 2301
5.5694447 2.0734556 0.059307043 88
-2.9780064 7.719142 0.27217677 4368
5.3857431 2.0733202 0.066365585 560
5.1780763 2.1073573 0.073858991 1490
5.1124344 2.1194556 0.076186374 2414
5.0301051 2.1200349 0.079275444 2980
4.9404864 2.1148207 0.082700253 2637
-2.9381423 6.6809864 0.28097072 4645
-2.992177 6.6773739 0.28074148 4719
-3.0744069 6.676137 0.28034398 4737
-3.1833849 6.6697531 0.27983367 4732
-3.2936232 6.6663332 0.27926567 4707.5
-3.4323974 6.6623478 0.27850842 4714.6665
-3.5653958 6.635478 0.2779282 1677
-3.6577151 6.6598711 0.27716267 4679
-3.7128098 6.6535912 0.27686092 4629
-3.7983711 6.6525116 0.27631065 4685
-3.911268 6.6453781 0.2756061 4405.5
2.9680996 2.0339253 0.015909594 350.5
2.9014165 2.0413673 0.018959887 309
-3.9488373 6.5004301 0.27645549 2265
-4.1025553 6.6100073 0.27452654 3187
-4.1642623 6.6187105 0.27400935 4219
-3.9970579 6.4743071 0.27631238 2495
-4.1933384 6.5378399 0.27439761 2564
-4.2320843 6.4850168 0.27449736 2837
-4.3103132 6.5366383 0.27351567 2687
-4.4096203 6.6397877 0.27198449 4489
-4.4922338 6.6205568 0.27146804 3817
3.4321873 1.3308117 0.013934422 429
2.3716986 2.0388253 0.044411425 1193.5
2.3084745 2.0395253 0.047279906 1093
-4.612566 6.6185045 0.27050322 3598
2.2449081 2.0385497 0.050198201 1048
2.1658449 2.0422595 0.053582128 1016
2.7529879 1.503911 0.045587096 668
2.0221806 2.0376518 0.060076233 797
-0.77165955 3.8618462 0.16881047 1018
-0.80437744 3.9086831 0.16731091 1222
1.9021039 2.032316 0.065435573 1053.3334
2.8430016 1.2167993 0.050128307 791
2.3659925 1.5624652 0.063152626 226
1.6919544 2.0239732 0.074489698 1234.5
1.8548145 1.7607839 0.079099238 833
1.4905114 2.0128725 0.082935438 985
-0.76069045 3.483691 0.18142524 592
2.110199 1.4493937 0.079879463 1437.5
2.0792012 1.5194089 0.078667596 1060
1.3752778 2.0180266 0.087051138 1777
1.3012826 2.0057666 0.090354681 1482.5
2.386359 1.2226732 0.074283749 698
2.1427805 1.3821983 0.080846637 948
1.4599564 1.7720454 0.095133409 961
1.4153516 1.8032134 0.095478863 830
1.1713219 2.0044649 0.095049456 1927.5
1.0756595 2.0028741 0.098433658 2116
1.362036 1.7731907 0.098931417 1174
0.96555239 1.9986532 0.10230264 1596
-4.8475237 5.7595415 0.27435267 1272
1.3137145 1.6100793 0.1082738 1228
0.96331209 1.8838866 0.10805593 1250
0.75466043 1.9931014 0.10917394 1927
0.72377449 1.9890964 0.11029656 2002
2.207468 0.92389441 0.093741074 954
1.7470593 1.2427042 0.10518242 894
0.66712588 1.9905894 0.11186662 2041.3334
0.56854814 1.991411 0.11458772 1985
0.86489528 1.7580025 0.11753395 1397
0.71223289 1.8472052 0.11788541 1696
0.45693058 1.9896386 0.11764969 2069.75
2.1045644 0.82111406 -0.00028730184 263
0.96016711 1.4809687 0.031173233 407
0.27467668 1.9711478 0.12311205 2177
0.2522186 1.9823482 0.12302458 2314
1.8629439 0.82702017 0.016570006 954
1.3047018 1.1825984 0.032159615 1075
1.296519 1.2106433 0.030884456 645
1.1838765 1.2190382 0.036768716 1357
0.87669545 1.4815226 0.035190221 403
0.78670448 1.5642004 0.033577818 539
0.53886539 1.6549442 0.03754374 768
0.1567111 1.9711788 0.12574002 2815.5
0.067036271 1.9728329 0.12749474 2786
-0.30737877 2.2268436 0.1194496 798
-0.50112534 2.4020951 0.11160508 1464
-0.047223866 1.9736559 0.12962911 2854.5
-0.12301576 1.9719584 0.13105489 2868
-0.29156977 2.1142247 0.12561865 829
-0.40023395 2.2129495 0.12136884 1004
-0.45930403 2.2450898 0.12017684 1055
-0.77977633 2.382232 0.11473031 235
-0.8286432 2.433305 0.11198993 170.66667
-0.88094795 2.4417136 0.11169443 180
0.81457192 1.2885926 0.051539112 1581
0.73589438 1.2880855 0.055357557 1804
0.64853245 1.4079752 0.050887924 1218.3334
0.54116613 1.4467888 0.052707199 2051.6667
0.50960904 1.5116355 0.049264532 1229.5
-0.19408238 1.9359086 0.13423197 2418.3333
-0.23513478 1.9698098 0.13296403 2976
0.53502792 1.3360074 0.061007272 1846
-0.61161125 2.0505593 0.13274775 503
0.95843607 0.88118219 0.07101956 1556
-0.32508814 1.7790661 0.14502659 1715
-0.40308002 1.7936361 0.09930104 1346
-0.51966095 1.8563039 0.050638963 441
-0.70956218 2.0413425 0.13399813 898
-0.77667439 2.1025798 0.13087241 401
-1.1683805 2.3011391 0.12008293 3274
-1.2220318 2.3934314 0.11462204 4012.6667
-1.3151011 2.4332979 0.11201534 968.5
-1.3811989 2.4363534 0.11155254 494
0.96908706 0.86056924 0.071724027 1161
0.46651596 1.15714 0.076859161 1883
-0.44182119 1.7713745 0.079062939 1358.5
-0.54551345 1.8391144 0.052402843 392
-0.61473471 1.8395174 0.053243216 401
-0.93749213 2.0385907 0.13520253 1782
-1.4461966 2.423012 0.11195949 263
-1.538681 2.423466 0.11130978 153.33333
0.95245916 0.64394712 0.0074387603 427
0.90093797 0.67448354 0.0087788366 421.5
-0.0049471259 1.3152533 0.082457408 2322
-0.37773862 1.5819616 0.070547134 1331.5
-1.0106966 1.9720294 0.13919282 3144.5
-1.1007296 1.9884117 0.13827834 2882.6667
-1.5889999 2.399657 0.11228485 153
-1.6830766 2.4103863 0.11080369 125
1.2790017 0.31384063 0.0053127259 361.5
1.1705608 0.38692403 0.0095302537 350
1.1082103 0.49170613 0.0070249923 373.66666
1.0643475 0.51696062 0.008661259 373
0.63177234 0.75623441 0.071456239 1347.3334
0.086734593 1.1031833 0.09573175 2745.6667
0.031709075 1.1511126 0.093939543 2449.5
-1.1162984 1.9881666 0.13829188 2832
-1.7449849 2.3788655 0.11197339 86
1.5738869 0.0036695004 -0.0027421713 248
1.3755817 0.13857675 0.0080719106 361.5
1.3174431 0.22341919 0.0079362765 368.25
1.2761729 0.27166152 0.0084239431 440
1.1822765 0.34399128 0.011594575 434
0.62041026 0.71693635 0.024820086 2172
0.10394019 0.99455643 0.028081466 832
0.069308221 1.0100448 0.028129444 3351
1.5425303 -0.10083723 0.0060709342 404
1.498204 -0.024925232 0.0061914995 349.33334
1.4343452 0.048806429 0.0080594681 344.79999
1.6389158 -0.19021845 0.0010464378 234.66667
1.5682859 -0.15357435 0.0062924176 392.25
0.91866523 -0.045990705 -0.0053560659 705
0.80038017 0.023869514 0.00096641108 539
0.72759873 0.08962369 0.002274327 512
0.65738112 0.13380909 0.0048776381 490.57144
0.58149725 0.20780587 0.0047101974 477
1.0758116 -0.28008807 -0.0046090279 615
0.99530166 -0.21764398 -1.9006431e-05 510.66666
0.94561142 -0.16355395 0.0013049133 510.33334
0.88481885 -0.076129913 0.00075852126 580.5
0.8101123 -0.0076797009 0.0027382821 529.59998
0.73905522 0.054450035 0.0043606907 476.5
-2.924134 2.3604486 0.089601651 705
1.1960778 -0.43780088 -0.0082550272 715
1.136776 -0.40725899 -0.0030557439 601.16669
1.0807941 -0.32346046 -0.0021228343 559.5
1.023361 -0.25775027 -0.00019138679 519.66669
-2.9594395 2.3015773 0.091657296 1445
-3.018882 2.2972577 0.090142637 207
1.156707 -0.49040198 -0.00012639165 368.5
-3.0379088 2.2718666 0.090880871 28
0.57918626 -0.30160224 -0.0031022001 707.5
0.51872844 -0.25295258 -0.00085064024 638.71429
0.4276163 -0.18727303 0.0026214458 595.59998
0.35213405 -0.10500002 0.0015364848 609.33331
0.32065511 -0.07749176 0.00162334 569.33331
0.23290515 -0.020669222 0.0036482401 579.75
0.70023972 -0.48187125 -0.0013730079 736
0.64892942 -0.42532229 0.00018569082 693.83331
0.59033471 -0.36623561 0.0019868463 630.5
0.5447436 -0.30510294 0.0014923662 593
0.83009797 -0.67029691 -0.0037659593 550.5
0.77639121 -0.59769404 -0.001879558 704.57141
0.72628599 -0.54006433 0.00023250282 695
-3.5969517 2.2242639 0.19108163 842
0.40346617 -0.55400634 -0.0047138594 724.5
0.35436398 -0.49999082 -0.0039808955 708.85712
0.29032856 -0.43475449 -0.0031298343 647.625
0.21610665 -0.36968327 -0.001759842 561.625
0.13685519 -0.30609214 -0.00050425902 565.85712
0.046599627 -0.23960066 0.00051949918 583.75
-0.021989405 -0.19499505 0.0014049448 589.14288
-3.712919 2.2149503 0.18848917 895.25
-3.7956195 2.2058179 0.18665147 939
0.6188373 -0.80609548 -0.012752628 782.79999
0.54545337 -0.75120986 -0.0058625918 696.14288
0.48934942 -0.67212701 -0.0048678108 698.44446
0.43106812 -0.5921036 -0.0045378022 709.28571
0.37829345 -0.5437175 -0.0022319779 654
-2.9731481 1.5717535 0.12829207 245
-3.8622539 2.1974266 0.18515331 720.33331
-3.9551594 2.1989186 0.18268239 840
0.63170844 -0.91129053 -0.0060451888 184
0.62301749 -0.87449384 -0.0075920466 445.60001
0.56804115 -0.79438114 -0.0054634213 706
0.23393899 -0.67241621 -0.0097106397 666
0.17163438 -0.61286545 -0.0078736227 658.125
0.10132474 -0.54874873 -0.0064085852 626.375
0.02071631 -0.4806093 -0.0052941758 645.44446
-4.0036516 2.18835 0.18165624 856
-4.0933094 2.2070119 0.17876257 511
-4.1621199 2.1956413 0.17715332 972
0.4228273 -0.91566944 -0.014209544 730.66669
0.36358172 -0.85875618 -0.0094298385 680.22223
0.30878395 -0.77091098 -0.0098823085 674.29999
0.25865245 -0.71602857 -0.0081121158 649.66669
-3.9308016 1.9867437 0.18863718 78
-4.2175035 2.1910288 0.1757194 846.5
-4.3102102 2.1818974 0.17331244 181
0.48492545 -1.0394783 -0.014331045 415.22223
0.42787308 -0.95924199 -0.010859119 621.875
0.18315554 -0.88494647 -0.013802474 929
0.13631374 -0.847054 -0.010120464 833.54547
0.066987634 -0.76478243 -0.0095091145 856.81818
-0.008549273 -0.69553423 -0.0074706916 839.79999
-0.078650057 -0.63520539 -0.0063285362 801.22223
-0.1580852 -0.57445502 -0.0052289534 753.71429
-4.0995841 1.9649751 0.18446742 102
-4.3530598 2.1847069 0.17201607 386
-4.4844441 2.193177 0.16799065 659
-4.5233855 2.1891258 0.16693202 1105
0.48989838 -1.1036772 -0.009888703 195.5
0.30746073 -1.0798888 -0.015912637 681.75
0.27560085 -1.0128814 -0.016589236 847.45453
0.20476145 -0.93593097 -0.011465596 837.5
-0.025837719 -0.86855817 -0.012868971 857.5
-0.069005668 -0.82553947 -0.011996415 846.33331
-0.17381153 -0.73823571 -0.0091243573 873.66669
-4.5901127 2.1918528 0.16487861 1292.5
-4.6715412 2.1850479 0.16257162 1272.5
0.350465 -1.1683254 -0.016575495 271
0.33112091 -1.1285676 -0.016118474 464
0.16925895 -1.1137333 -0.019230157 819.83331
0.11989003 -1.0492743 -0.016321344 902.83331
0.058071434 -0.96595907 -0.014670635 935
0.0076447725 -0.90681601 -0.013328113 849.20001
-0.17018488 -0.89489973 -0.012696868 804.40002
-0.24501705 -0.84015882 -0.0091636311 771.83331
-0.36525178 -0.75554037 -0.0066367704 804
-4.7312369 2.1773174 0.16091852 1337
-4.8192806 2.1744349 0.15825537 1260.3334
0.18719661 -1.1752244 -0.01626939 472.25
0.028582215 -1.1381276 -0.016177312 809.16669
-0.017505467 -1.0754498 -0.014511138 845.84613
-0.077611566 -0.99296534 -0.014337247 805.33331
-0.15487638 -0.94091558 -0.012982266 810.40002
-0.24776241 -0.9630208 -0.013269739 846
-3.7451012 1.3691909 0.10707356 395
-4.910675 2.1734169 0.15541677 360
-5.0042658 2.1722863 0.15247039 401
0.045917094 -1.1611279 -0.017233366 651
-0.076925635 -1.163862 -0.016521903 983.23077
-0.1385988 -1.0827132 -0.014925305 946.07141
-0.22382221 -1.0270953 -0.014124515 917.75
-0.32624391 -1.0174135 -0.012553779 830.33331
-0.42824036 -0.93829358 -0.010135623 850.5
-0.51007283 -0.88941658 -0.0075775757 780
-0.58817959 -0.84527671 -0.0070948713 854
-3.5306571 1.1641014 0.12529424 142
-3.7585938 1.3256078 0.10829711 556
-5.0826163 2.1535761 0.15033418 1227.3334
-5.1894693 2.1614192 0.14670376 1460
-0.042568386 -1.2230814 0.013401996 456
-0.13811278 -1.2269121 -0.014836268 931.75
-0.20690849 -1.1692564 -0.016854096 891
-0.29225963 -1.1467924 -0.014431925 758.44446
-0.37371713 -1.078984 -0.012273559 711.8125
-0.44836476 -1.0226741 -0.009254273 670.16669
-0.49827692 -0.98069239 -0.010073964 701
-0.66463065 -0.89546216 -0.0059394725 698.33331
-0.73225272 -0.86888885 -0.0053140335 712.66669
-5.2304935 2.1522658 0.1455393 949
-0.24224332 -1.2147431 -0.016943196 775.25
-0.37677088 -1.1746824 -0.011862352 657
-0.41409993 -1.1391382 -0.010870861 623.875
-0.48852456 -1.0726098 -0.010459093 604.58826
-0.57402956 -1.0154561 -0.0086493231 648.05884
-0.65521669 -0.97040021 -0.0076597203 646.84613
-2.8676684 0.39962053 0.047132749 3020
-5.2247076 2.0258458 0.14819683 858
-2.8950963 0.35026646 0.049073283 1110.2
-3.5515747 0.73777509 0.14172667 136
-4.1123548 1.1045177 0.10012653 107
-4.1763158 1.2045362 0.09319745 50
-5.209527 1.8033063 0.15289649 877
-5.223434 1.8612039 0.15135388 127
-5.2448902 1.7447019 0.15273726 752
-3.5562088 0.50208783 0.066681921 773
-3.5919385 0.50537062 0.14845203 187
-5.2161946 1.6106975 0.15610681 1131
-2.9041057 0.0093481541 0.10648824 186.5
-3.5655713 0.46699953 0.10971287 1113.5
-3.6213608 0.47532082 0.14801778 230
-5.2239223 1.5317838 0.15719056 1044.5
-2.8611069 -0.20419466 0.034309726 3897
-5.2004681 1.3475308 0.16107674 798
-2.8623261 -0.27230132 0.039970282 2998.8333
-3.9852757 0.41392207 0.13057841 618
-4.1400752 0.56574392 0.11725754 145
-5.2050786 1.251194 0.1624324 829
-2.8969221 -0.34750152 0.042389471 657.40002
-4.0014639 0.39802575 0.13017651 640
-4.5434012 0.68555713 0.091066942 33
-5.2110133 1.1000006 0.16450101 444
-5.2033529 1.1327941 0.1643008 816
-3.5294547 -0.082899094 0.097302511 830
-5.2037292 0.98186541 0.1664653 610
-2.8338487 -0.69059086 0.024737183 3742
-5.1949248 0.90237284 0.16788845 703.33331
-2.8396032 -0.75218248 0.048699591 3159.2
-2.8686519 -0.76033747 0.047639515 3279.7778
-5.202785 0.81716228 0.16871765 634.5
-2.9410679 -0.76895535 0.093331516 2612
-3.7045825 -0.35316384 0.094061941 4202.5
-3.7112794 -0.38105762 0.094485357 4117
-4.6980786 -0.053705454 0.10008918 391
-4.3787594 -0.38534892 0.12636103 2790.3333
-4.4198256 -0.31796217 0.12258567 119
-2.8057063 -1.6779417 0.047476832 3683
-2.8224416 -1.600212 0.053053912 1188.7778
-2.9220746 -1.5600441 0.0094820447 653
-1.9305198 -2.3506098 -0.019230567 636.5625
-1.98436 -2.2743795 -0.018313875 658.16669
-2.825635 -1.7363425 0.053031277 1347.75
-2.8944063 -1.6505915 0.045571987 669
-3.0211756 -1.6051586 0.062091764 148
-5.1907611 -0.15623522 0.070351854 24.5
-5.2737212 -0.16667593 0.065113574 32
-1.3218578 -2.8893914 -0.036905751 790.83331
-1.4234453 -2.773747 -0.028491609 685
-1.474458 -2.7552438 -0.028746994 683.41174
-1.5633855 -2.7110529 -0.027386311 665.125
-1.6484988 -2.6600761 -0.026873484 673.35297
-1.7301793 -2.5985944 -0.026103657 640.35297
-1.8015852 -2.5257311 -0.023354219 636.23529
-1.8859549 -2.4564774 -0.021847147 680.88464
-1.9632566 -2.4140763 -0.02163144 729.61108
-2.0154617 -2.3390636 -0.020345772 717.36365
-2.7791519 -1.9348925 0.036661621 4926
-2.8116825 -1.8726921 0.055426706 2781.2856
-2.8337002 -1.8047645 0.027959906 732.75
-3.2377512 -1.5514159 0.10760593 401
-3.3088284 -1.56225 0.099230483 513
-5.2277546 -0.28237283 0.069694012 30.333334
-5.2746768 -0.19597805 0.065465987 32
-1.211287 -3.0829887 -0.042736348 782
-1.2618902 -2.9845419 -0.041106805 929.5625
-1.36543 -2.9375188 -0.03771593 869.34998
-1.4211446 -2.8732862 -0.033449702 783.29999
-1.5099416 -2.8200719 -0.030926768 756.35297
-1.6015129 -2.7689395 -0.029521454 733.1875
-1.6867008 -2.717032 -0.028789012 764.26666
-1.7655261 -2.6559565 -0.027367655 741.125
-1.842891 -2.5883667 -0.027254812 740.75
-1.9159839 -2.551892 -0.026831642 790.76923
-2.0107241 -2.4968965 -0.024572315 839.66669
-2.810189 -2.0082059 0.056815002 2202.1111
-2.8125463 -1.9579397 0.050688136 3460.625
-3.3384695 -1.5791893 0.095767662 617
-5.2382922 -0.41256702 0.070577532 33.333332
-5.2257547 -0.36000025 0.070804089 36
-1.203388 -3.1778316 -0.041108858 399
-1.237633 -3.0875208 -0.045102816 878.875
-1.3157866 -3.0624311 -0.040497687 934.46155
-1.4137933 -3.0332422 -0.03780017 885.85712
-1.4903362 -2.9624758 -0.035907693 911.26318
-1.5631309 -2.8977361 -0.034345128 897.23529
-1.646418 -2.8369949 -0.032931011 912.5
-1.7320702 -2.784358 -0.032215055 941.46667
-1.8107908 -2.723299 -0.030685306 908.46155
-1.9035385 -2.6771874 -0.030462584 919.88232
-1.9991469 -2.6633029 -0.029210478 932
-2.0501668 -2.5982594 -0.027364297 920.33331
-2.8218412 -2.0906839 0.042545702 963.72223
-5.1901793 -0.58213437 0.075490817 106.5
-5.2237153 -0.51609433 0.072630823 46
-1.2979786 -3.1736197 -0.042969808 815.83331
-1.3745375 -3.1579933 -0.042309884 849.38464
-1.4745451 -3.1193278 -0.037997495 743
-1.5624419 -3.0601602 -0.037008539 824.86664
-1.6180315 -2.9798522 -0.033872049 838.57141
-1.6942191 -2.9085574 -0.032926328 908
-1.7804253 -2.8564572 -0.032529805 930.15387
-1.8581443 -2.7984173 -0.031559091 946.0769
-1.9572752 -2.7725148 -0.029572722 853.4375
-2.057656 -2.7405176 -0.02857657 784.38464
-2.1143672 -2.6780729 -0.028226068 850.75
-2.1700821 -2.5994222 -0.026348338 784
-2.8218966 -2.2171226 0.039490934 424.125
-2.8261797 -2.1607678 0.037086967 529.40002
-4.7005115 -0.96005023 0.11125782 232
-5.1520705 -0.68853867 0.078917086 375.79999
-1.1309868 -3.4791946 -0.051764429 436.5
-1.2947203 -3.3068252 -0.047268074 863
-1.3472095 -3.2923627 -0.045453165 912.81818
-1.448617 -3.2714686 -0.045262583 896.66669
-1.5202749 -3.2362428 -0.040723912 815.75
-1.6034596 -3.0696111 -0.03609148 849
-1.6740053 -3.0333233 -0.034451436 804.88892
-1.7507284 -2.9931707 -0.034022599 798.91669
-1.8339167 -2.9429548 -0.03370462 794.91669
-1.9143839 -2.8818908 -0.032368876 817.9231
-1.9650805 -2.8356307 -0.030776506 823.25
-2.1932609 -2.7664831 -0.029036837 885.85712
-2.2319028 -2.7125478 -0.027363643 911.66669
-2.8201399 -2.3790703 0.043777335 209.39999
-2.8285065 -2.3138885 0.033091944 265.55554
-5.1524234 -0.82187462 0.079763606 1152
-5.1452103 -0.78401458 0.080036029 955.5
-1.1616099 -3.4931853 -0.055538096 652.5
-1.2173634 -3.4931514 -0.056269526 767
-1.3505946 -3.460947 -0.051794007 913.625
-1.4253502 -3.4087377 -0.041929312 799.28571
-1.5579263 -3.2276084 -0.041507073 842.71429
-1.6386402 -3.1910081 -0.039319679 778.58331
-1.7288296 -3.1429412 -0.036726326 645.36365
-1.8156929 -3.0988817 -0.036624387 869.18182
-1.9014411 -3.0442748 -0.035648443 888.25
-1.9838288 -2.9820189 -0.03430498 875.70001
-2.0558264 -2.9240921 -0.034014367 920.88892
-2.1017022 -2.878376 -0.032781083 922
-2.3431013 -2.7975702 -0.027365634 845.22223
-2.3951554 -2.7045951 -0.023495998 841.79999
-2.4299037 -2.6598301 -0.024166256 894
-2.8155756 -2.4512367 0.023034047 182.38095
-5.1396165 -0.98191059 0.081305325 2037
-5.1391411 -0.91701448 0.08110851 1290
-1.4478602 -3.4142599 -0.044519365 822
-1.5307602 -3.3992691 -0.045661412 833.79999
-1.619374 -3.3532267 -0.040821634 448.89999
-1.7196133 -3.2974839 -0.036274288 168.5
-1.7992344 -3.2542148 -0.034348123 188.66667
-1.892411 -3.2137997 -0.035948817 620
-1.9768424 -3.1571147 -0.034436554 843.90002
-2.0567839 -3.1024361 -0.03427938 869.5
