# .PCD v0.7 - Point Cloud Data file format
VERSION 0.7
FIELDS x y z intensity
SIZE 4 4 4 4
TYPE F F F F
COUNT 1 1 1 1
WIDTH 1280
HEIGHT 1
VIEWPOINT 0 0 0 1 0 0 0
POINTS 1280
DATA ascii
1.0299044 1.6914189 0.54467225 70
1.0552706 1.7142408 0.54584098 93
0.28154856 1.5845342 0.48314714 148.8
0.39784425 1.6077801 0.53230512 213.85715
1.0874224 1.7542313 0.54765689 118.4
1.1255163 1.7755429 0.54910427 71
1.1658299 2.0834634 0.50974172 132
1.0253111 2.7387211 0.5087297 137
6.7356181 -2.387697 0.68727672 65
5.6224165 -2.3763309 0.76674968 158
5.5033536 -2.3376434 0.75976849 162
5.4805832 -2.2575459 0.75739026 151
5.374855 -2.1468396 0.75010681 115.5
5.3630509 -2.0619576 0.74829733 122
5.3346729 -1.9246365 0.74492282 133
5.3531804 -1.9798164 0.74665797 127
5.3377652 -1.8669362 0.7443549 122.66666
5.3051567 -1.7630398 0.74126899 228.33333
5.2887154 -1.669793 0.73924583 75.333336
5.2704282 -1.5779508 0.73717713 94
5.2469969 -1.4860653 0.73486161 102.66666
8.3763428 -0.77501178 0.74114406 234
5.2081022 -1.3772291 0.73154759 107.75
5.1840329 -1.2645317 0.72908264 118.5
5.197041 -1.3078591 0.730232 123
5.1534653 -1.1653186 0.72644109 125
5.1750584 -1.2105466 0.72807151 120
5.1459708 -1.1255642 0.72566706 128.5
5.1553407 -1.0672214 0.72570431 143.66667
5.1152897 -0.98206651 0.72274315 150
5.1271467 -0.98572904 0.72344851 211
5.0953078 -0.88153464 0.72085786 151
5.1119142 -0.93337154 0.72218072 173
5.0848551 -0.83193314 0.71991563 169
5.0887918 -0.78657615 0.71984375 147.33333
5.0652804 -0.70075852 0.71797138 172.25
3.2302885 -1.0479308 0.7187953 1933
5.0165291 -0.57823855 0.71450502 178.5
5.0466366 -0.62886631 0.71649808 168.5
5.0058727 -0.51017451 0.71357292 185.5
2.6073165 -0.90697426 0.61978364 1399
2.7742145 -0.91059095 0.67034227 1826
4.9835911 -0.4087207 0.71187651 183
1.4167892 -1.080163 0.65056086 84
1.4834499 -1.0679404 0.6511417 79.85714
1.5667124 -1.0649393 0.65708333 73
2.6041684 -0.85598141 0.61775512 3110
2.6525059 -0.81059718 0.61959952 3461.375
2.8493979 -0.74996108 0.67002887 920.25
4.9580941 -0.30883902 0.71007341 210.25
1.3843038 -1.0187755 0.63788724 338.33334
1.4846871 -0.99767834 0.62734616 94.666664
1.5729123 -0.94870323 0.62930864 94.809525
2.6844568 -0.69892102 0.61836547 3169
2.7619884 -0.72537994 0.64287466 2339
2.8228655 -0.7266078 0.62942481 626
4.9372487 -0.20625119 0.70861459 217.5
4.9533782 -0.23399724 0.70960587 362
1.4023435 -0.94807231 0.66424596 2285
1.5906308 -0.91269141 0.62884307 87.199997
1.627684 -0.85095131 0.62762964 64.199997
1.8978672 -0.7488572 0.70313573 73
2.032299 -0.73611206 0.69384176 50.5
2.1341929 -0.70665264 0.67809612 43
2.218472 -0.70833832 0.68880302 30
2.6248646 -0.65930289 0.67686462 3251
4.9280515 -0.11642957 0.70792937 228.75
1.9286687 -0.6783759 0.65063685 75.533333
2.0319016 -0.66868281 0.63348562 102.17391
2.1263244 -0.63715136 0.6421836 83.514282
2.2033305 -0.6172868 0.66804361 45.857143
4.9105248 -0.063381463 0.70685202 216
4.9182062 -0.01177696 0.707268 257.75
1.843029 -0.62474245 0.6554327 81.25
1.886434 -0.63071167 0.64893806 94.300003
2.1364498 -0.54792917 0.61693668 66.333336
2.2029231 -0.55758339 0.63292521 110.375
4.909668 0.081599861 0.70677143 324.60001
2.2082479 -0.41045567 0.65453959 1748.4286
2.2345123 -0.40805745 0.66225481 1945.7646
4.8869209 0.18445601 0.70553309 300.39999
4.8480968 0.28526086 0.703448 321
4.8041949 0.39362302 0.70117986 293
4.8349867 0.35567841 0.70285559 334.5
4.7918401 0.43281361 0.70059162 293.5
4.7984686 0.4841685 0.70116496 352.66666
4.7572756 0.55971146 0.69910276 448.20001
4.7361922 0.65730667 0.69837469 514
4.7035494 0.7522974 0.69705302 868
3.3070331 0.58435124 0.67582572 300
3.3703299 0.57780635 0.68112653 185.83333
3.467154 0.58223164 0.64938176 77
4.6662211 0.83518028 0.6954627 1214.25
3.1755085 0.63925624 0.67228365 488.64285
3.2544017 0.60204166 0.67876881 391.375
4.8846173 0.98530489 0.70909089 232
3.0725121 0.71202278 0.6645394 562.14288
3.1162195 0.67410439 0.66759795 517.83331
3.0113463 0.7841996 0.66100335 663.09088
2.9511523 0.89391214 0.67883188 746
2.9636178 0.86791056 0.65081382 756.42859
1.7041483 0.73897672 0.64225084 436.07477
1.799878 0.76423723 0.64993966 380.375
1.8963346 0.78108495 0.64406621 398.48935
1.998014 0.80197811 0.64986444 293.80597
2.1021338 0.82126242 0.64924252 284.18869
2.1974702 0.84038156 0.64789009 297.67441
2.2941484 0.86290169 0.65608978 317.75
2.3881476 0.88888299 0.6545558 308.60001
2.4906607 0.91821671 0.65965652 291.5
2.5775278 0.94052887 0.64826238 261.58334
2.6862106 0.96579826 0.66082293 264
2.7692709 0.98434228 0.66086131 303.375
2.9120269 0.97480863 0.65850019 682.125
1.7288638 0.7558803 0.63843679 424
1.8001224 0.77029514 0.64474076 383.6875
1.9593687 0.80595404 0.65751594 344
2.586174 0.94739199 0.63600791 254.33333
2.6842334 0.97375363 0.65685534 240.57143
2.8033175 0.99778944 0.66906494 279
2.8487146 1.0100707 0.65448624 217
0.82925004 1.4618489 0.6472047 179.5
0.84480894 1.540247 0.61540622 208
0.89611906 1.563412 0.62675291 228.75
1.0089395 1.5624983 0.61690617 237
0.31759924 1.5384448 0.59926277 177.125
0.3563354 1.5602 0.58849055 246.75
0.73764896 1.604564 0.64119375 131.5
0.78692389 1.5941157 0.63473994 154.75
0.8516795 1.5957936 0.61933094 173.5
0.9927026 1.6343379 0.66168827 193
0.27829206 1.5748039 0.62526506 157
0.40274298 1.6260397 0.59731638 220.375
0.43931943 1.6645101 0.59684587 213.83333
1.0914258 1.7926513 0.63469505 175.16667
0.45431811 1.7096655 0.58333004 143.33333
0.51370001 1.7829263 0.61059254 187.5
0.49220067 1.8075314 0.58780462 159
1.098563 1.9926183 0.63421386 145
0.52231967 2.9100115 0.64193964 53.5
0.57613182 2.9228697 0.64322829 79.666664
-0.20145476 2.901279 0.6371187 137
5.443625 -2.1738095 0.86618179 117
5.3749876 -2.0714543 0.85829979 110.33334
5.3472605 -1.9641451 0.85345882 113
5.3315682 -1.8809537 0.85020667 111
5.2945461 -1.8178221 0.8458358 116
5.3098884 -1.7677397 0.84584934 220
5.2836938 -1.6697168 0.84158301 96.333336
5.2664132 -1.5783256 0.83823466 93
5.2406378 -1.4854436 0.83426297 103.66666
5.2071824 -1.3918509 0.82974505 96
5.188231 -1.3192447 0.82684577 133
5.1894231 -1.268355 0.82599777 128.5
5.1602287 -1.1694665 0.82191944 112.66666
5.1788721 -1.2263083 0.82439911 116
3.2378855 -1.4917676 0.76910627 3417.875
5.1457992 -1.1025568 0.81964004 130.5
5.1492863 -1.0546612 0.81915188 142.5
3.2624636 -1.4413869 0.7725302 4185.1431
3.2818642 -1.3885834 0.76731062 4060.875
5.1118889 -0.98263979 0.81503254 191.66667
1.3818803 -1.6858319 0.7752285 2796
3.2979593 -1.3216407 0.76913422 3055.1428
5.0903635 -0.89340025 0.81200761 143.5
1.3554614 -1.6256582 0.76575279 3003.3999
5.0879183 -0.79934204 0.81056619 150.25
5.0613785 -0.70115167 0.80722886 160.25
1.7795833 -1.2947946 0.79876435 1057.5
3.2148051 -1.0289961 0.80301154 1308.75
5.044405 -0.60725927 0.80483872 157.75
1.2619101 -1.3433187 0.79396397 1707
2.2570834 -1.1116749 0.81212801 110
5.0069289 -0.50057578 0.80077213 192.8
1.7383544 -1.1527989 0.79852682 1266
2.0021696 -1.0460576 0.79940522 137
4.9813228 -0.39501527 0.79783702 182
1.3090051 -1.1343893 0.75238228 1962.6666
1.6065221 -1.0344908 0.79234082 3022.125
1.6875329 -1.0385288 0.79774588 3889.0908
1.7866887 -0.99321389 0.79403335 3839.0908
1.8542941 -0.98636425 0.79865915 2072
2.0997949 -0.99638653 0.80142325 1191
2.1303837 -0.90018737 0.7867189 622
2.3112662 -0.87694687 0.81123745 3315
4.964292 -0.32113865 0.79594719 208.33333
4.9658728 -0.27864134 0.79583651 176
1.388548 -1.0036373 0.74967432 3975.3438
1.4925133 -1.0266341 0.78660506 4262.6665
1.5784765 -1.0161711 0.78658038 2758.3999
1.7795453 -0.94775867 0.76336807 1270.875
1.9927442 -0.85785317 0.76892042 3345.4546
2.0622408 -0.85821712 0.78526407 3592.5386
2.1288671 -0.87170935 0.80874825 4161
2.2615976 -0.80140406 0.75775892 1579.4286
2.323925 -0.77609986 0.78197396 1433.6666
2.6774192 -0.68797469 0.75278658 2290
2.7469139 -0.73443037 0.73127204 2887
4.9369192 -0.21934393 0.79316121 312
4.9477544 -0.20266931 0.79397804 240.5
1.3618478 -0.96824384 0.75822216 3781
1.5822635 -0.89124221 0.779486 385
1.7826707 -0.80997109 0.7262578 69
1.9636585 -0.78512746 0.71732515 68.900002
2.0002522 -0.75488603 0.71632344 46.5
2.1666622 -0.76984763 0.71590388 40.333332
2.2746563 -0.73122656 0.74853611 2337.6667
2.3122764 -0.69844335 0.79471058 1055
2.6316581 -0.66456139 0.77631056 3122
4.9166512 -0.1164664 0.79110122 260.75
4.9195666 -0.064549364 0.79121232 359
2.214046 -0.61515182 0.74658978 94.428574
4.8960171 -0.001469437 0.78916091 288
4.9134254 -0.015852936 0.79062802 377.66666
4.8978276 0.081045546 0.78928649 340.39999
2.2052782 -0.401757 0.75878447 1969.5278
2.2255306 -0.39455038 0.73410851 2071.25
4.8761344 0.18365833 0.78759742 310
4.8419805 0.28437525 0.78503829 305.39999
4.8108926 0.38372111 0.78288937 289
4.8214078 0.38467246 0.78377354 340.75
4.8077803 0.474691 0.78317577 428.75
4.7655563 0.56057727 0.78032643 485.39999
4.7344332 0.6567688 0.7786234 548
4.7061167 0.75270355 0.77731276 772.40002
3.2937732 0.5822106 0.7755515 377.79999
3.3775821 0.57769978 0.78288013 222
3.4532642 0.57890695 0.76906639 89.333336
4.6843686 0.83942461 0.77658087 899.5
3.171268 0.63857967 0.7646575 550.82355
3.245276 0.5994885 0.75757593 451.66666
3.0704618 0.71138352 0.76721621 643.08698
3.1174541 0.67331541 0.7706635 615.25
3.0076213 0.78454393 0.75874597 731.375
2.9475482 0.88887817 0.75544566 813.89471
2.9688699 0.84763128 0.76170093 899
1.7107831 0.74264723 0.73119992 274.51852
1.8065879 0.76348919 0.74528551 265.98981
1.8982097 0.77525699 0.74638879 327.48914
2.0005014 0.79988664 0.74663693 262.33847
2.0931344 0.81687015 0.74803782 277.03922
2.1934733 0.83663523 0.74939275 317.90909
2.2872891 0.85878354 0.7549898 341.67999
2.3854499 0.89097553 0.7528885 350.20834
2.4819951 0.91527671 0.75847185 342.77777
2.5782087 0.93957037 0.7480402 316.75
2.6784942 0.96386409 0.76142758 291.20001
2.7691307 0.98504275 0.76300156 299.25
2.9031012 0.97381574 0.75809431 725.13159
1.708473 0.75010407 0.73280519 283.28571
1.7765319 0.76494443 0.74216664 266.83334
2.6807356 0.97186345 0.77137887 300.5
2.7722011 0.99186641 0.7783646 397
2.8424919 1.0065414 0.71183997 238
0.88820195 1.5482399 0.69329154 226
0.311638 1.5425354 0.74105078 198.44444
0.7232008 1.6297094 0.70696741 187
0.77895927 1.630759 0.71612298 170.5
0.98117179 1.6760607 0.73172349 188
0.27033496 1.5698664 0.69133848 122.2
1.0930665 1.8011706 0.72129107 231
0.50035125 1.7901947 0.68351191 249
1.0729927 1.8749812 0.77583992 199
1.0863259 2.020555 0.69996631 116
0.38658053 1.9613476 0.75503808 252.5
0.34219337 1.994045 0.7602486 335
0.030421734 2.4255505 0.75063699 232
0.063394129 2.437022 0.75079811 241
0.68571389 2.9329133 0.71748763 165.33333
-0.19229603 2.8079722 0.71135128 66
-0.042406201 2.9034793 0.7162019 78
-0.88283825 3.8430045 0.67951053 74
5.5363989 -2.3949912 0.87916714 151
5.5884905 -2.4621029 0.88494128 167
5.4926977 -2.3175707 0.87375212 139
5.4838529 -2.2461123 0.87114984 149.5
5.3540664 -1.9846892 0.96111083 123.5
5.3294892 -1.8815238 0.95495254 133.5
5.3109055 -1.7841669 0.94970697 263.5
5.2540421 -1.5603821 0.93666607 94
1.4154907 -2.3034739 0.86935532 3250
1.4374571 -2.3068881 0.87037683 3501
5.2202096 -1.4646001 0.93030936 91
1.3828053 -2.2431664 0.85954452 3705.25
1.4604607 -2.2804739 0.86692953 1481
1.7588203 -2.1219962 0.85330057 71
5.1937475 -1.3789144 0.92511123 98
1.7067102 -2.0744741 0.86544073 225.2
1.7685761 -2.0210702 0.83851558 182
5.1770406 -1.2520776 0.91988355 133
5.197001 -1.2979876 0.923172 117.5
1.3591952 -2.0918343 0.83620298 3213
1.6314378 -2.0191617 0.83254623 796
1.7268051 -1.9935777 0.83248383 359
5.1641407 -1.1969483 0.91711873 114
5.1677723 -1.1731379 0.91688728 126
1.4975224 -1.9130564 0.8121776 2284.3333
1.72118 -1.8136734 0.85211939 249
3.2417216 -1.5008662 0.89514673 3992.75
5.1516128 -1.0931878 0.91324759 139.33333
6.9545655 -0.69805372 0.96278095 165
1.393983 -1.8656993 0.87476778 4072.875
1.4625404 -1.8518299 0.85512763 3885.8889
1.5557395 -1.78031 0.83977032 1643
1.6246147 -1.7564386 0.83793384 1297.5
1.7671325 -1.7075036 0.83581024 548.66669
3.260675 -1.4391867 0.85334551 4202.25
3.2876892 -1.3953433 0.88960958 4177.4546
5.1177115 -0.99331111 0.90742236 140.66667
5.1269889 -1.0121106 0.90880156 242
1.359943 -1.7476319 0.84895468 3089.7144
1.5559833 -1.7173307 0.82862204 1205.8
1.6514016 -1.701807 0.82938409 788.66669
1.753895 -1.6911433 0.83223397 1089
3.306097 -1.3273262 0.87423909 3383
5.0966535 -0.89592576 0.9031412 134.75
1.3432672 -1.6227432 0.85847968 3455
1.4464943 -1.6606637 0.85851783 2662
1.6425465 -1.5225847 0.83689731 954
2.6931443 -1.330385 0.86704481 743.33331
2.8122554 -1.2650627 0.87581223 1169
2.8294342 -1.2581793 0.8775413 1215.5
5.0706077 -0.7919119 0.89837933 147.33333
5.0844355 -0.81070185 0.90017784 153
1.1373113 -1.6114583 0.89049524 1797
1.1988852 -1.5775808 0.88198864 3631.1111
1.3851318 -1.5486159 0.87500852 2173
1.4993621 -1.4946693 0.82639587 1347.75
1.5901546 -1.4741638 0.82853603 1155.3636
1.7108572 -1.4612899 0.8279081 1109.6666
1.7636396 -1.4577228 0.83014297 1183.4
2.3907049 -1.2670325 0.85692495 810.40002
2.4552355 -1.2406099 0.86156511 1676.5
2.5706601 -1.233621 0.83647716 88
2.645571 -1.2660699 0.85150343 470.66666
2.8424869 -1.2386436 0.87706405 1195
3.3265691 -1.1185297 0.89071399 1843
5.0565367 -0.7233752 0.89566439 138
5.0551291 -0.67761809 0.89475054 152.5
1.5811894 -1.3370711 0.8318634 1397.25
1.6857255 -1.3238202 0.83363545 1414.3334
1.7544391 -1.3272611 0.82832313 1240.5714
1.85006 -1.2986547 0.83905768 1205.625
2.3881469 -1.2371229 0.85149026 1055
2.4463243 -1.195284 0.8528291 2243
2.670536 -1.0853806 0.87134117 821
5.0269828 -0.6042977 0.89063144 153.75
1.4629024 -1.3309779 0.82721227 1552.3636
1.5284967 -1.3366976 0.83000839 1511
1.6530366 -1.2995117 0.82647496 861
1.7696127 -1.2344234 0.81884432 459.66666
1.8787711 -1.2509657 0.83094311 249
2.0805492 -1.1830221 0.83714002 393
2.1113076 -1.1638465 0.83699721 861
2.2525539 -1.1373136 0.85060591 1440.2
2.3265631 -1.1095124 0.85636663 1577.1818
2.4199469 -1.0774442 0.84572321 2025
2.5088818 -1.0714201 0.84258145 1310
2.6731539 -1.0664535 0.86905658 1248
2.7321539 -1.0607227 0.87850255 1398.2858
2.8021226 -1.0343711 0.88735962 1492.8334
5.0054002 -0.50076872 0.88691485 163
5.01195 -0.50179541 0.88761288 145
1.7537116 -1.132363 0.80970216 752
1.9395199 -1.0870035 0.83176517 1649.6
2.0235505 -1.0995575 0.84266514 1626.4
2.1092808 -1.0414373 0.82744718 1932
2.3491991 -0.97798789 0.83567351 1780
2.4356956 -1.017853 0.8226704 1843.5
2.5747252 -0.99874717 0.84248173 148
4.9795012 -0.3986778 0.88295364 193.25
1.5995468 -1.0507677 0.822061 2557.7144
1.704174 -1.0536485 0.82747704 2776.5625
1.791351 -0.9951117 0.82238066 3934.7334
1.8780363 -1.0164839 0.81510317 2236.25
2.0709114 -0.9584893 0.83599424 1973
2.2936373 -0.88532585 0.83058375 3694.8462
2.3490634 -0.86264259 0.83091527 3793.5
2.4628897 -0.84001273 0.85195851 2152.8
4.9572434 -0.28866771 0.87953156 203
4.9718533 -0.32238275 0.88138467 169
1.3941625 -0.97876501 0.81123638 3821.0476
1.4843824 -0.97926974 0.82164097 3552.8501
1.5686421 -0.93780863 0.83439445 2494.5239
1.668481 -0.91341197 0.83542794 2241.5833
1.884491 -0.93797463 0.81711471 4109.1431
1.9666817 -0.88115191 0.81635487 4023.9375
2.0798542 -0.86921668 0.82340062 3319
2.1676111 -0.85587281 0.8268168 3367.9614
2.2514737 -0.82355297 0.83153218 3186.3999
2.3556907 -0.77749783 0.85126078 2950.8333
2.4715552 -0.77966464 0.85946512 2987.2083
2.5417295 -0.74903035 0.85941893 3536.1035
2.6950595 -0.70325983 0.89482301 1727
2.7335823 -0.72913271 0.87180746 2492
4.9343615 -0.2176362 0.8765583 290.5
1.3944347 -0.95372504 0.83138138 2824.75
1.4508047 -0.94327259 0.84684569 2392.75
1.5723351 -0.89891642 0.83330065 2404.8181
1.6606884 -0.86925638 0.83594763 2374.8667
1.7564807 -0.84710336 0.83759516 2926.4492
1.8537557 -0.82236737 0.84193224 2925.1667
1.9524056 -0.79963362 0.85049516 2841.1406
2.0487227 -0.7783072 0.85152185 2955.0408
2.1487978 -0.76558399 0.8527512 3325.0938
2.2471249 -0.72877592 0.85031146 3503.3076
2.3367 -0.71631098 0.84489805 2058.75
2.544461 -0.69879043 0.88018966 2149
2.6051416 -0.65054542 0.84968519 2879.5
4.9157076 -0.11665361 0.8739965 230
4.9272499 -0.11732056 0.87523079 247
1.6790453 -0.78349954 0.83078229 481.5
1.8866684 -0.74801099 0.85661107 1376
2.0237479 -0.67281675 0.8599686 1325.381
2.1235695 -0.65292197 0.8664127 1499.5454
2.2247462 -0.61987466 0.86253583 2416.4243
2.2800066 -0.62423748 0.83060139 1170.1666
4.8901238 -0.0323973 0.87094998 259.25
4.906662 0.018839816 0.87262911 293
2.2115555 -0.53007799 0.85644817 2089.4595
2.2707629 -0.52061343 0.83921307 1248
4.881485 0.060521297 0.86988515 459
4.8999009 0.086113535 0.87187928 344.5
2.1958299 -0.40928376 0.8272661 1778.9584
2.2408447 -0.43809551 0.83536822 585
4.8958387 0.18426764 0.87158179 321.39999
4.8220935 0.28999564 0.87742352 291
4.8024321 0.37530935 0.91255146 332.125
4.8118787 0.4144398 0.86376739 494.5
4.7817082 0.47161302 0.94092381 289.75
4.8117905 0.47550884 0.86430025 503.75
4.7514367 0.55865639 0.9027679 489.66666
4.7725496 0.56191766 0.86100817 575
4.7256474 0.65552264 0.89675099 490
4.7109051 0.75410604 0.89685297 671
3.2908483 0.58344442 0.86093491 385.5
3.3804965 0.57444292 0.88229883 220.2
3.4526796 0.57814014 0.86696815 69
4.6874866 0.84063888 0.89582962 670.125
3.1734104 0.63189691 0.86846459 550.19049
3.2365136 0.59919924 0.86703932 482.42856
3.06742 0.70807832 0.86543506 666.29413
3.1161647 0.66917169 0.87404585 627.5
3.0062697 0.78558594 0.86105728 766.66669
2.9458275 0.88906914 0.85558128 824.15387
2.9673119 0.84478378 0.86010379 823.85712
1.9125659 0.77310205 0.80601037 221.0625
2.0065417 0.79973572 0.82141316 200.42424
2.0992548 0.8134191 0.83551288 226.05
2.1952822 0.83667386 0.84874189 258.1282
2.2873907 0.85942239 0.85022986 276.58334
2.3877907 0.8921786 0.85306239 299
2.4837422 0.91516244 0.85667634 295.04999
2.5824749 0.93931174 0.85669148 268.53333
2.6763244 0.9653939 0.86365074 272.36365
2.7760096 0.98436719 0.85887736 323.69232
2.903904 0.97200519 0.85560936 740.75
2.6819062 0.97142476 0.83355898 293
2.8750017 1.0189549 0.87661088 488
2.721931 1.7674947 0.85700744 247
0.73892963 1.6151506 0.87217653 201
0.90342259 1.6619256 0.78930247 213
0.99800879 1.6770128 0.83383852 190.55556
0.28145134 1.5773369 0.83423954 217.10001
0.98121095 1.8249834 0.81415004 112
0.96084732 1.9260933 0.83172047 193
1.0143265 1.9531384 0.8352254 206
1.1816347 1.9907522 0.83999759 263
0.40750802 1.9391174 0.80517 76
0.96465039 2.1337543 0.81505501 296.20001
0.96309119 2.2423251 0.776133 67
0.70017731 2.9428651 0.79050058 167
6.0354357 -2.6132605 1.0515525 132.5
6.231401 -2.5571628 1.0683992 144.33333
5.6574574 -2.4726448 1.0095248 218
5.6892214 -2.4571598 1.011946 199
5.4846449 -2.2159061 0.98262089 159
5.3090978 -1.7856767 1.0527382 244
5.2334819 -1.4856348 1.0306714 97
5.1975932 -1.4173061 1.0235294 111
1.6898105 -2.0615308 0.94708657 119
5.181653 -1.3068622 1.0174034 109
5.1792293 -1.2166344 1.0139091 126.5
3.2592745 -1.5101156 0.97597945 4317.7144
5.1386337 -1.0905215 1.0046172 134
1.6583385 -1.7998002 0.93925905 86
3.3157091 -1.3867027 0.99119204 4050.4285
5.0954823 -0.98001546 0.99575239 131
5.1267209 -1.01359 1.000735 226
1.069819 -1.8058412 0.96646005 1119.3334
3.3310699 -1.3268638 0.96668369 1545
5.0931635 -0.89651138 0.99312466 143
1.1278279 -1.6696911 0.94768709 2058
3.3512964 -1.1375278 1.0043786 4400
5.0759325 -0.82152462 0.98893183 149.5
5.074162 -0.7632426 0.98727649 156
1.1992348 -1.5834477 0.94127297 3562.3076
3.3366489 -1.1264712 0.94673383 4039
5.0466514 -0.66567725 0.98151731 182
5.0535359 -0.68984091 0.98293197 162
5.0349874 -0.59594363 0.97859728 158.8
5.0006242 -0.49001512 0.97219169 157.5
5.0204988 -0.52644569 0.97541052 158
4.9771662 -0.44261494 0.96836269 156.5
4.9623575 -0.30081522 0.96452874 239
2.4848037 -0.75441515 0.91713166 3777.75
2.5226934 -0.7403459 0.92414463 2325.2
2.6768236 -0.69652623 0.92393434 1711.5
4.9354315 -0.22989026 1.0026329 275.75
4.9512835 -0.23583351 0.96239877 297
4.9119077 -0.11715187 0.95630032 245
4.8879752 -0.01548194 0.98383337 249
4.8710337 0.077102795 1.0019646 258.125
4.8789153 0.090731375 0.95135117 269.5
4.845067 0.17727068 0.98351395 265.44446
4.8479538 0.22207887 1.0297184 290
4.8203788 0.27769911 0.989434 279.33334
4.7938809 0.38090852 1.0225976 279.39999
4.7666721 0.47906992 1.0196723 349.60001
4.7455325 0.5770942 1.0180874 356.60001
4.7198892 0.67385948 1.0161672 525.79999
4.707768 0.77303118 1.0167928 716.79999
3.2804708 0.58260405 0.96479046 395.25
3.3806067 0.57250053 0.97131407 190.16667
4.6692319 0.84586132 1.0129325 498.33334
3.1667862 0.63422245 0.96828836 505
3.237761 0.60113388 0.97838193 431.20001
3.0609341 0.71056217 0.96816611 581.5769
3.110034 0.6707139 0.95100474 587
2.996954 0.78509206 0.9574858 651.5
2.9409318 0.88596958 0.95822525 663.83331
2.9652743 0.84296072 0.95082623 692.625
2.2202563 0.84366143 0.90632856 195.5
2.2943201 0.86338079 0.92299718 209.23077
2.3875003 0.88884461 0.94095951 225.66667
2.4813886 0.91479182 0.95169598 225
2.5834999 0.9427405 0.95737582 228.91667
2.6773853 0.96522868 0.95526004 218.33333
2.7665093 0.9805389 0.95448095 268
2.9017448 0.9720847 0.95527226 650.59375
2.5449758 0.9418546 0.99807972 193
2.6673851 0.96824777 0.97075641 213
2.76614 0.9910323 0.96458143 417
2.8671839 1.0147675 0.95404166 525
0.97795892 1.6747243 0.91107213 168.5
2.5873489 2.0256581 0.98381305 252
0.27883351 1.5716536 0.9295873 192.11111
1.5058191 -3.6873887 1.0815389 1443
1.5290523 -3.6745765 1.0802734 1610
5.973444 -2.6165886 1.1730545 226.5
6.4784708 -2.5388255 1.0919452 130
6.5969672 -2.4833567 1.1016862 149
6.7508473 -2.4418082 1.1155746 120
5.6240511 -2.5968707 1.1313324 248.66667
5.709094 -2.5618033 1.1392418 219
5.7960219 -2.5623832 1.1493987 275
6.746973 -2.3612843 1.1125175 110
6.7083492 -2.2657073 1.1055398 123
6.6788335 -2.138598 1.0985864 59
6.8723636 -2.0302799 1.1150756 125
5.3041458 -1.8008792 1.1574395 303
1.0592347 -1.8681085 1.0961211 1585
3.3241663 -1.4146625 1.0328827 3469
5.0985074 -1.0071174 1.0893999 258
1.077113 -1.8211503 1.0438337 2617
3.3705239 -1.1474093 1.1002543 3534
3.3488536 -1.1211573 1.0555195 1460
5.0437474 -0.68956643 1.0707712 148
5.0046506 -0.59347349 1.1505948 124
4.9995222 -0.51998335 1.1037675 156.75
4.9376321 -0.25862861 1.1310294 242
4.8801403 0.016233986 1.1180347 215
4.8669119 0.078048199 1.1155386 213
4.8407245 0.19010153 1.1110151 235
4.8630314 0.13955745 1.1148825 267
4.8105512 0.2800189 1.1061528 236
4.792716 0.37989852 1.1040511 264.79999
4.7595606 0.47729096 1.0996011 306
4.7420135 0.57568336 1.0984702 321.39999
4.7131557 0.67185271 1.095711 369.79999
4.6887445 0.76829094 1.0942265 388.60001
3.2880435 0.57948947 1.0732267 327.75
3.3786469 0.57248545 1.0653849 181.5
3.4459834 0.57743865 1.060088 88
4.6661143 0.84445697 1.0927744 358
3.1573381 0.63359678 1.0614996 448.29999
3.2370372 0.59810734 1.0702306 377
3.0612078 0.70380574 1.0694597 520.75
3.1100631 0.66816807 1.0379062 494
2.9912674 0.78909796 1.065834 565.16669
2.9404407 0.88375896 1.0578594 559.90002
2.9646177 0.83486575 1.047298 611
2.5074558 0.92636973 1.0146749 166.5
2.5810709 0.94553369 1.0428716 175.66667
2.686429 0.9680329 1.0570165 159.85715
2.7918065 0.99118632 1.0463885 239.83333
2.8953648 0.97518617 1.0606129 542.90912
2.6037631 0.95815986 1.0194895 203.66667
2.6698022 0.97188574 1.0427324 173.5
2.7771423 0.99799877 1.0723923 231.75
2.8454823 1.0304248 1.0623326 587.79999
0.35031241 1.4378785 1.0074636 31
0.29925483 1.5392736 1.0312746 179.33333
0.98298353 1.6546183 1.0396433 143.66667
0.28922075 1.5700666 1.0012742 189
6.0647798 -2.5964718 1.1827394 199.5
6.1429019 -2.5858235 1.1914188 184
6.2073998 -2.566035 1.1980698 196.5
6.3342953 -2.5606518 1.2129247 197
6.4272017 -2.5340617 1.222761 221.5
6.5236907 -2.5074131 1.2331108 192.5
6.6114569 -2.4940164 1.243095 203
6.7232971 -2.4316072 1.2538635 157
5.7305465 -2.6163816 1.2686478 322
6.7019362 -2.3625655 1.2482204 145
6.6925206 -2.2807102 1.2435473 145
6.6599398 -2.1709225 1.2349596 122.66666
6.7102866 -2.0798891 1.2375406 114
6.8290105 -2.0346277 1.2505938 127.5
6.8374386 -1.9439245 1.248286 112
6.8127608 -1.8602678 1.2421956 134
6.7742853 -1.7187827 1.2325147 127
5.2375412 -1.8862963 1.2577856 1423
6.7745967 -1.5579959 1.2274529 152
6.7891459 -1.421578 1.2253478 172
6.7744694 -1.3477452 1.2214335 144
6.6469927 -1.1449981 1.1998819 121
8.4695406 -0.79026937 1.2602817 175
6.6237574 -1.0731815 1.1952047 160
8.437685 -0.4858 1.2545128 214
5.118978 -1.0521083 1.188195 102.5
1.0721474 -1.9218458 1.1112721 183
5.1021981 -0.99849463 1.1828368 157
5.1125879 -0.96564668 1.1832341 96
5.0877833 -0.89923882 1.1761035 99
5.0618463 -0.79500276 1.1674784 96.333336
5.0824389 -0.81565583 1.1718867 140
5.0554953 -0.73976231 1.1643592 126
5.0540781 -0.68250418 1.1622013 115.5
5.0180855 -0.59619612 1.1530957 112
4.9305558 -0.25819278 1.2145181 215
4.8802433 0.016134607 1.2011472 179
4.8685093 0.083083227 1.1986128 196.25
4.881927 0.0573401 1.2013911 184
4.8325305 0.17966725 1.1913884 193.60001
4.8033247 0.27979991 1.1861165 196.2
4.7832074 0.37931469 1.1832725 201.2
4.7649736 0.47812572 1.1813546 258.20001
4.7369533 0.57522535 1.1779283 275.39999
4.7089353 0.6714825 1.1750243 327.20001
4.400744 0.74448323 1.1873496 4095
4.5663924 0.76253712 1.2258248 351
4.6874442 0.7684263 1.1740203 317.79999
3.2775774 0.58167261 1.1708765 302.83334
3.3482189 0.57015693 1.1812522 176.60001
3.4568772 0.58069599 1.1858941 72.5
4.3824725 0.75880474 1.1838548 3167
4.6559334 0.84254265 1.1705494 347.33334
3.1672845 0.62732035 1.1640623 373
3.2347951 0.59814358 1.1572641 347.5
3.0550666 0.70563972 1.1476393 434.3158
3.1059651 0.66618371 1.153366 377.66666
2.9940519 0.77792716 1.1397231 447.3125
2.9391403 0.87715405 1.1337346 461.79999
2.9640393 0.83211946 1.1128967 514
2.793067 0.99017507 1.1231111 186.33333
2.8959951 0.9719941 1.13669 463.75
2.8031321 1.0213473 1.1333404 356
2.8657746 1.0169549 1.1137187 617
0.40135181 1.4586018 1.0894762 61
0.80191547 1.5685767 1.0974135 118
0.32186687 1.5113075 1.0740747 170
0.35339379 1.5180688 1.0701427 188
0.93171072 1.6232876 1.1005633 138
0.41138202 1.5913434 1.0789895 298
0.68319368 3.0439811 1.1023493 169
0.58383906 3.1083066 1.1175649 72
6.0446472 -2.6076906 1.3114241 297.33334
6.171917 -2.5881085 1.327934 336.5
6.246273 -2.5734918 1.3374541 321
6.3259339 -2.5605011 1.3478869 270.5
6.4164395 -2.5327079 1.3590254 320
6.5339136 -2.4975567 1.373697 293.33334
5.8153577 -2.5971494 1.2789829 301
5.8967166 -2.5925996 1.2899036 336
6.6803479 -2.2792759 1.382704 226.5
6.6413865 -2.1667142 1.3711742 206.66667
6.6702332 -2.0854983 1.3713269 164
6.7526164 -2.0639386 1.3824124 155
6.7940917 -1.83865 1.3782519 155.5
6.7768836 -1.7413554 1.3715428 176.66667
5.2633791 -1.929756 1.2651458 584
6.7747564 -1.6326081 1.3668197 155.66667
5.2473912 -1.8776678 1.3107414 1172
5.3360958 -1.8645259 1.2725104 430.5
6.7723708 -1.5606344 1.3636702 185
5.2370205 -1.7575983 1.3515773 222
6.7421985 -1.4634017 1.3555062 198
6.7613859 -1.3993102 1.3561656 200.5
5.2354455 -1.7142295 1.347893 1322
6.6973076 -1.3295649 1.3440226 188
6.6713147 -1.2545921 1.337612 184
6.6594024 -1.1508642 1.3325982 183.33333
6.6339831 -1.0455079 1.3256934 189
6.6059737 -0.95745492 1.3190404 187.5
6.5680637 -0.88513541 1.311394 165
6.5518494 -0.77033412 1.3063009 187.66667
3.3414583 -1.3731768 1.2952104 3240.6001
3.3569465 -1.3751163 1.3230381 4027
5.1190886 -1.0166459 1.2798144 171
3.3306112 -1.3342359 1.2501981 1954
4.8629508 0.01644245 1.2798353 141
4.8545327 0.078017205 1.2777604 143.2
4.8347631 0.17984484 1.2734342 149.60001
4.8024993 0.32033861 1.2673364 185
4.8361435 0.27158687 1.2745271 169.5
4.7860174 0.37966377 1.264509 149.8
4.7642951 0.4756628 1.291494 190.25
4.7340422 0.57494015 1.2970265 168.10001
4.7060947 0.67128569 1.2937807 182.89999
4.3954425 0.74342221 1.2946131 3604.5
4.5767164 0.76471984 1.3049009 247
4.6913047 0.74933589 1.2932303 198.83333
3.2756519 0.5818097 1.2372359 209
3.3659053 0.57066554 1.2717419 89.666664
3.4344735 0.57586342 1.2509135 60
4.3833737 0.75918078 1.2924484 3070
4.5540824 0.8283599 1.3025016 305
4.6634922 0.85510671 1.2521422 240
3.2336283 0.59852517 1.2224717 260.5
0.63715994 2.9897416 1.2409563 105
1.2754837 4.3897572 1.264022 63
5.6800222 -2.6796236 1.390803 444
5.7525144 -2.6534617 1.4000227 473.66666
5.8390741 -2.6352041 1.4122109 465
5.9296465 -2.6360533 1.4266896 499
6.0297523 -2.622232 1.4416069 504.5
6.1191583 -2.5998347 1.454257 478
6.2257853 -2.5853989 1.4704199 456
6.2991948 -2.5693998 1.4811662 457
6.6946321 -2.4416802 1.3935877 215
6.6847568 -2.3585956 1.3875928 216.5
6.8368649 -2.04164 1.3938056 172
6.908257 -2.0130746 1.4030559 163
7.0068288 -2.0130117 1.417701 159
6.8458967 -1.9135292 1.3892734 183
5.2457633 -1.8924284 1.36414 678.5
5.3302641 -1.8631046 1.3775333 113
5.2415395 -1.7471237 1.4539144 212
5.2265 -1.711357 1.4475617 1138
8.5112743 -0.92874259 1.439106 210
8.4973269 -0.83937687 1.4360535 230.33333
8.4811153 -0.75031078 1.4327983 244
8.4751797 -0.66306227 1.4310346 243
8.433629 -0.52993649 1.4242671 263
8.4264584 -0.48656887 1.4229555 249
5.0976377 -1.0108696 1.3674495 134
4.8645988 0.015677711 1.403729 76
4.8502135 0.07991907 1.4099454 79.5
4.8758564 0.066986859 1.3649578 123.5
4.8310032 0.1791582 1.394781 90.599998
4.7938042 0.2744256 1.3901674 102
4.8226671 0.32128599 1.3531537 129
4.7753553 0.38189489 1.3960429 88.166664
4.8141217 0.36136019 1.3516724 105.66666
4.751503 0.47670707 1.4190471 153
4.7142839 0.6124382 1.4133959 130
4.405344 0.74635535 1.4077981 3017
4.5755439 0.76492399 1.3821439 180
4.669951 0.76552922 1.4082733 126
4.381741 0.7594946 1.4015301 2630
4.4828043 0.81152213 1.3592483 1819
5.6869583 -2.6867712 1.5166625 680
5.74226 -2.6678467 1.5246605 672
5.8220568 -2.6453145 1.5367792 695
5.9393735 -2.6445332 1.5578333 669
6.0233388 -2.6207306 1.5708596 679
6.3326793 -2.5495017 1.4851716 431
6.6446395 -2.480304 1.531709 376
6.6941247 -2.4457953 1.537622 296.5
6.6880097 -2.3644562 1.5312374 337.5
6.6793718 -2.2829802 1.5245527 322
6.6410894 -2.1705902 1.5110916 304.66666
6.6710634 -2.0897954 1.5113118 232.5
6.7382212 -2.0618858 1.5211275 266
6.8436131 -2.0482836 1.5383819 236.5
6.954299 -2.0157909 1.5555761 256
7.0484843 -1.9941084 1.5706236 310
7.1441035 -1.9712262 1.5859396 266
5.2400069 -1.8909285 1.466839 1049.6666
5.3220253 -1.8753048 1.4824997 233
5.2719402 -1.7910578 1.4642719 137
8.4456835 -0.70600647 1.6006081 325
8.4524231 -0.66366136 1.6010799 278
8.4140282 -0.53112501 1.5934485 267
8.3964643 -0.4445011 1.5898168 272.33334
8.3674898 -0.33650443 1.5843446 279.5
8.3623886 -0.25183839 1.5829731 259.5
8.3485346 -0.1880648 1.5804498 304
4.857707 0.077282526 1.5263742 41
4.8376989 0.15899329 1.5204049 46.666668
4.8033924 0.27961591 1.5112172 52
4.7889647 0.36974856 1.5085781 43.25
4.7136636 0.5123716 1.4898252 132
4.40626 0.74648297 1.48057 2590
4.5259733 0.75442427 1.4445641 137
4.3941183 0.77165139 1.4783568 2266.5
4.4614282 0.8099224 1.4529442 1146.6666
4.3885512 0.85471642 1.4826868 314
5.6980429 -2.6967015 1.6435272 943
5.747582 -2.6737852 1.650826 936
5.8485394 -2.6647067 1.670005 917.5
6.0902681 -2.6041374 1.581551 711
6.1388774 -2.5947905 1.5896086 678
6.2430859 -2.5783203 1.6073221 731
6.3226838 -2.5462523 1.6192654 672
6.676826 -2.361187 1.6709073 360.5
6.6518884 -2.2722378 1.6595005 449
6.6487865 -2.1947312 1.6532613 447.5
6.6460652 -2.0995412 1.6460255 339.33334
6.76793 -2.0759928 1.6679796 433
6.8348913 -2.0465357 1.679027 358.5
7.2499509 -1.9505798 1.603211 239
7.3088078 -1.9316342 1.6124769 268
7.4189434 -1.909377 1.6305525 287
7.5011282 -1.8761522 1.6432961 312
8.4652605 -0.96892554 1.6080008 212
8.5006247 -0.90860826 1.6124173 305
8.4928045 -0.82020706 1.6097051 286
8.4769287 -0.75296789 1.6061771 298
5.9341917 -2.6437256 1.6849852 943.5
6.0414972 -2.6150844 1.7037349 959.33331
6.1627288 -2.5919204 1.7261195 1004.5
6.2556043 -2.5686157 1.7428941 1030.5
6.3161573 -2.5449002 1.753086 980
6.6235881 -2.1664724 1.7842562 623
6.6231232 -2.1101604 1.7796271 542.5
6.9470029 -2.0146227 1.6988103 376.5
7.0279837 -1.9880317 1.7129697 331
7.136508 -1.9701121 1.7331634 376
7.2184229 -1.940938 1.7475257 417
7.3047237 -1.9318403 1.7640114 392
7.4037652 -1.9058219 1.7821002 394.5
8.5473671 -1.117993 1.8020753 324
8.5350494 -1.0272931 1.797644 355.33334
8.4987288 -0.91171497 1.7884805 326.5
8.4720173 -0.82069701 1.7817947 342
8.4534044 -0.73165554 1.776776 297.5
8.4499826 -0.66648549 1.7750518 355
8.4196558 -0.55601269 1.7678931 340.5
8.4048872 -0.44803858 1.7638494 343
8.3744774 -0.33973467 1.7571886 343.5
8.3561916 -0.25425413 1.7531556 388.5
8.3496256 -0.16975541 1.7514236 403
8.3075438 -0.10547115 1.7434444 305
4.6555347 0.85522133 1.6891335 84.25
5.7525411 -2.680583 1.7768871 981
5.8364682 -2.6604297 1.7929267 1066
5.9490638 -2.6375256 1.8152132 1093.6666
6.0569811 -2.6089375 1.8360423 1156
6.1526575 -2.5894039 1.8554038 1183.5
6.2489219 -2.5682034 1.8748937 1186
6.6642895 -2.3572178 1.808972 534
6.6555018 -2.2758808 1.8001584 662.5
6.6380477 -2.2106838 1.790983 643
6.689445 -2.0825107 1.7917689 472
6.7548962 -2.0723515 1.8051609 497
6.8351302 -2.0483682 1.8207732 504
6.9499764 -2.0175183 1.843533 530
7.0429649 -1.9954085 1.8622863 590
7.1323452 -1.9702404 1.8801442 530
7.4944506 -1.8755341 1.7983766 400
7.5697789 -1.8592792 1.8124516 488
7.6862092 -1.8552003 1.8353978 313
5.371902 -2.2190835 1.8606941 600
5.3580675 -2.1469309 1.8468611 558
4.6136537 0.84604126 1.7912643 68.5
5.7553258 -2.6849098 1.9039489 1085.5
5.8563428 -2.6568265 1.924571 1135.6666
5.9439416 -2.6180956 1.9407899 876.5
6.0545988 -2.6098752 1.9669154 1202.5
6.3436756 -2.5440583 1.8938997 1153
6.4275079 -2.5315773 1.9118069 1158
6.5229344 -2.5039706 1.9309447 1209
6.6358304 -2.463661 1.9530278 965.5
6.6644287 -2.3799567 1.9514127 895.33331
6.6436491 -2.2734168 1.9362657 885.5
8.0948343 -1.8961681 1.9190263 401
6.6224747 -2.1689739 1.9215473 845.66669
8.1367884 -1.8424617 1.9247313 220.5
8.5716009 -1.7134391 2.0061648 413
6.6568108 -2.0901089 1.922634 604
6.7442365 -2.07075 1.9418626 637
6.8267994 -2.0478017 1.9597373 679
6.9210958 -2.0282817 1.9808218 705
7.2364001 -1.9490292 1.9015937 533
7.330873 -1.9225197 1.9206889 571
7.4197969 -1.892747 1.9384367 540
7.5040236 -1.8802857 1.9563344 616
7.6133428 -1.8749739 1.9803021 604
8.1359863 -1.776087 1.9213424 237
8.1501617 -1.7361319 1.922302 221
8.3265944 -1.7175697 1.9569544 532
5.3731532 -2.2522767 1.8657626 594
8.6389751 -1.4990984 2.0110416 461
8.6260004 -1.4274783 2.0057285 467
8.5927668 -1.3295616 1.9954754 455.5
8.5736122 -1.2355735 1.9884231 493
8.54743 -1.1413037 1.9801185 522.5
8.5216513 -1.0260416 1.9715164 442.33334
8.5010633 -0.91285336 1.9643151 455
8.4692039 -0.82107955 1.9555805 435.5
8.4536476 -0.73237801 1.9504611 427
8.4429827 -0.66635752 1.9469557 510
8.4166994 -0.53491664 1.939276 504
8.3962898 -0.42654863 1.9335004 441.5
8.3659983 -0.33960524 1.9262037 463.5
8.3434172 -0.25393915 1.9207017 470.5
8.3234272 -0.14810552 1.9158084 467
5.6752548 -2.7084835 2.0132518 925.5
5.7504549 -2.6841867 2.029161 1031
5.8514466 -2.656162 2.0515432 1079
6.1523633 -2.5916073 1.9887745 1272
6.2394657 -2.5651362 2.0071619 1250.5
6.3341937 -2.5411236 2.0279615 1289.5
6.4396663 -2.5208242 2.0521159 1306.5
6.5338039 -2.4923401 2.0726571 1310
5.8669686 -2.5915248 2.0461872 559
6.6438236 -2.3331795 2.0831499 988
6.6326938 -2.2703164 2.0736108 1001
6.615624 -2.1865828 2.0605016 964.5
7.8797746 -1.9182136 2.0422635 497
8.6756525 -1.6933384 2.0263147 443
6.6364298 -2.1018364 2.0574265 757
6.7326541 -2.0677092 2.079329 768
7.0136647 -2.006355 2.0014157 715
7.1362691 -1.9744546 2.0286312 730
7.2343903 -1.9510761 2.0507121 722
7.3256941 -1.9234753 2.0709407 757
7.4252319 -1.8973249 2.0933955 731
8.6650848 -1.6208355 2.0211601 420.5
8.6452932 -1.54662 2.0141666 486
8.375741 -0.4254292 2.099386 670.5
8.354373 -0.33925921 2.0932665 627.5
8.3474941 -0.25447574 2.0907342 653.5
8.329423 -0.14857122 2.0856767 661.66669
8.2639275 -6.5737157 2.1496224 448
5.5839739 -2.7237661 2.113488 516.5
5.6689682 -2.7078075 2.1345313 873
5.7454586 -2.6843951 2.1521673 879
5.8131146 -2.6725943 2.1693938 976
6.2403159 -2.5679541 2.1432731 1257.5
6.3350844 -2.5438662 2.1658685 1278.5
6.6292648 -2.4625762 2.0936029 1089.5
6.6563063 -2.3975646 2.0933363 1051
8.3885241 -1.9640242 2.1585808 478.5
8.3640852 -1.8651426 2.1475365 764.5
7.7397137 -1.876515 2.1692452 234
8.3330917 -1.7657821 2.1352129 790
8.6472158 -1.7343386 2.2044437 560
8.6611271 -1.6911246 2.2054672 600
6.8138967 -2.0443304 2.0985153 766.5
6.9379263 -2.0173299 2.1288135 783.5
7.0241671 -1.9927506 2.1494851 854
7.119895 -1.9700897 2.1729889 850.5
7.5243001 -1.8692011 2.1157269 749
7.8024583 -1.8327597 2.1818068 261.5
8.3108578 -1.6924256 2.1263945 812
8.6421576 -1.6166664 2.1976345 568.5
8.6312542 -1.5216733 2.19084 602
8.617671 -1.426909 2.1836698 577.5
8.5923357 -1.3306195 2.173981 616
8.5681133 -1.2356226 2.1648183 613.5
8.5445528 -1.1417867 2.1560695 613
8.5209293 -1.0268334 2.1468682 610.33331
8.4966879 -0.91305548 2.1378787 601.5
8.4742327 -0.82250673 2.1302474 700
8.4525414 -0.73294914 2.1230335 697.5
8.4476347 -0.64591724 2.1199679 483
8.4033279 -0.55559731 2.107939 641.5
8.3876915 -0.49016109 2.103164 620
5.5800228 -2.7236094 2.2355695 462
5.6611195 -2.7050035 2.2564962 779.5
5.7235947 -2.6911271 2.2728577 810
5.8676753 -2.6512656 2.1814983 911.5
5.9515629 -2.628587 2.2019374 1014
6.0522604 -2.6142511 2.2287581 833
6.1503859 -2.5961695 2.254499 1051
6.2363324 -2.5690527 2.2755756 1102
6.4358501 -2.5210345 2.1905 1367
6.5282965 -2.4916656 2.2122328 1360
6.6220427 -2.4610398 2.2344031 1241
6.6523037 -2.3782513 2.2328107 1125.3334
6.6319685 -2.2719631 2.2145967 1079.5
6.6086893 -2.1853673 2.1981456 990.5
8.090044 -1.8329879 2.2529962 59
6.6348524 -2.1029432 2.1964767 877.66669
6.7297149 -2.0682724 2.2198329 843
6.8167491 -2.0472336 2.2425978 895
6.9321175 -2.0167856 2.2727108 895
7.2201958 -1.947634 2.1978431 843
7.3173723 -1.9221979 2.2217557 867
7.4182053 -1.8965577 2.2467489 856
7.465941 -1.8719865 2.2576523 940
7.5941787 -1.873089 2.2923169 312
8.1019192 -1.7706378 2.2520535 255
8.4643288 -0.82320529 2.300667 836.5
8.4356232 -0.73282766 2.2908268 823
8.4293556 -0.64577913 2.2870471 556.5
8.3910704 -0.57753992 2.2757018 824
8.3892698 -0.5346635 2.2743468 878
8.3717632 -0.4905135 2.2690029 896
8.3647413 -0.42625731 2.2660718 835.5
8.3532038 -0.34077403 2.2618053 905.5
8.3357687 -0.25541526 2.256263 957
8.316226 -0.14955936 2.2502644 809
8.207325 0.8881157 2.2324245 141
8.1946373 0.92833436 2.2303066 134
8.2479143 -6.5647893 2.3816009 4268
8.2129879 -6.4490166 2.3618107 1898
5.5798984 -2.7249923 2.3580432 424
5.768189 -2.6832328 2.2849836 791
5.827661 -2.6656547 2.3000233 868
5.9346027 -2.6392293 2.3283033 878.66669
6.0569544 -2.6194656 2.3628502 912.5
6.1122012 -2.5952876 2.37607 922
6.3356409 -2.5475149 2.3016403 1153.5
6.4284129 -2.5203531 2.3252168 1196.5
6.5338912 -2.4978471 2.3534749 1310
6.6221519 -2.4643683 2.3753412 1243.5
6.6578207 -2.4231637 2.380578 1012
6.6447535 -2.3582191 2.3681574 1096
6.6244869 -2.2715163 2.3509383 962
8.6105347 -1.8211203 2.3816457 646
8.6774044 -1.7919917 2.3966362 806
6.5993652 -2.202915 2.3347166 1077
6.6050482 -2.1490588 2.3298824 812
8.3662119 -1.8002652 2.3195665 210
8.6629515 -1.7177758 2.3888614 806
6.6457295 -2.0918548 2.3355618 573
6.7287345 -2.0706899 2.3587039 792
6.7779374 -2.0532708 2.3719416 787
7.023253 -1.9941139 2.2967927 1004
7.1162291 -1.9704021 2.3214607 997.5
7.2164159 -1.947942 2.3484662 1007
7.3166733 -1.9235791 2.3754742 1024.5
8.6441393 -1.619821 2.3788753 865.5
8.6173973 -1.521106 2.3671134 850
8.6092052 -1.4275969 2.3605247 814
8.5888758 -1.3323436 2.3510437 917.5
8.5347157 -1.2092299 2.3320925 880
8.5475187 -1.2564622 2.3372967 768
8.5129471 -1.1162244 2.3228993 830
8.5254135 -1.1628935 2.3278732 964
8.5083551 -1.0269693 2.3184719 874.66669
8.4899426 -0.91412228 2.3099747 920.5
8.1243143 0.75511813 2.373421 96
8.1816912 0.84394586 2.3919358 116
8.1476479 1.089512 2.3905666 164
8.1290541 1.1284128 2.3868759 145
8.1047888 1.2288345 2.3842645 146
8.0862379 1.3301129 2.3836863 156
8.0536652 1.4285514 2.3794508 153.5
5.6679745 -2.711113 2.3835561 672.5
5.7430315 -2.686722 2.4030862 718
5.8307137 -2.6689808 2.4282598 714.5
5.925312 -2.6537406 2.4564383 761.5
5.9870811 -2.6353216 2.4734316 814
6.1677632 -2.5895751 2.3925328 1055
6.2418685 -2.5744925 2.4134064 968
6.3312116 -2.5473621 2.4373598 1045.5
6.4247561 -2.5206373 2.4629807 1181.5
6.603261 -2.2445214 2.48088 883
6.5911117 -2.1634576 2.4660473 950
6.6149306 -2.2119024 2.4803133 785
6.6276178 -2.1044991 2.4704454 724.66669
6.8509078 -2.0449057 2.3936327 843
6.9278245 -2.0179145 2.4145873 858
7.0455127 -2.0053902 2.4499519 1022
7.1180086 -1.9738659 2.4693418 1068
7.4214754 -1.8992858 2.4039447 1000
7.4753356 -1.8767047 2.417763 1116
8.5208426 -1.140852 2.5032291 989.5
8.4994431 -1.0264661 2.4925616 1033.3334
8.4758453 -0.9129054 2.4817066 984.5
8.4370375 -0.79862416 2.4669993 1137
8.4543257 -0.84436387 2.4733236 966
8.4286709 -0.7326802 2.4626505 1084
8.4119654 -0.64460433 2.4555132 687
8.3984632 -0.55744654 2.449564 1035.5
8.3550491 -0.42599294 2.4346077 1066
8.3778229 -0.49154496 2.4422998 1089
8.3325729 -0.33985692 2.4268129 1016
8.310461 -0.25444445 2.4193931 997.5
8.2913332 -0.14894132 2.4129226 872
8.29531 -0.14901909 2.4140124 1009
8.2027674 0.88807625 2.3991449 160
8.2092276 0.93069887 2.4022746 164
8.1617393 1.0289083 2.3922894 190.5
5.7326779 -2.663749 2.519954 241
5.8409204 -2.6780319 2.5604134 717.5
6.0553041 -2.6197393 2.4932506 817
6.1399393 -2.5936484 2.516855 884
6.2343678 -2.5714245 2.5447021 919
6.3330407 -2.5495176 2.5743225 1009
6.5321703 -2.4991634 2.494103 1191.5
6.6208477 -2.4658694 2.5177312 1137
6.6619291 -2.4273078 2.5254452 947
8.3456421 -2.070893 2.5103843 533
8.4755373 -2.0651085 2.5451012 149
8.5513277 -2.0175099 2.5621927 1099
6.6487446 -2.3622222 2.5119636 916.5
8.5891447 -1.9343377 2.5666306 1339
6.6331964 -2.2967141 2.4977951 762
8.6183023 -1.8246416 2.5672591 1025
8.6568432 -1.7176726 2.5710406 1000
6.7232127 -2.0701697 2.4977775 660
6.8109956 -2.0494733 2.524461 749
6.9259152 -2.0189049 2.5592062 810.5
7.2145157 -1.950022 2.4971926 1124
7.3119502 -1.9247023 2.5253589 1111
7.4228816 -1.9025092 2.5582309 1197
7.4656463 -1.8762138 2.569272 1173
8.6340675 -1.6187854 2.5588655 1045.5
8.6137123 -1.5215714 2.5477335 1055
8.5929947 -1.4253389 2.5368338 1078
8.5648603 -1.3286265 2.5241346 957
8.5448885 -1.2346405 2.5141068 1056.5
8.3307228 -0.34013963 2.5975306 1239.5
8.3111839 -0.25481766 2.5902224 1158
8.2874451 -0.14906757 2.5817373 1165.5
8.2980833 -0.14937973 2.5849729 1223
8.3330402 -0.066495672 2.5950754 86
8.1270695 0.75580287 2.5407915 82
8.1387148 0.8189193 2.5462132 111
8.1991854 0.8881554 2.5668907 160
8.2093611 0.93125355 2.5714619 151
8.1482582 1.0484769 2.5572329 165.33333
8.1281691 1.1498297 2.5553622 183
8.087389 1.2266021 2.546494 156.5
8.0782738 1.3294355 2.5488439 147.66667
8.0603132 1.4308275 2.5488513 141.5
8.0454254 1.4908061 2.5477779 148
6.2659612 1.745126 2.5357099 420
1.5840436 -14.033766 2.6534007 2072
1.6707151 -14.035814 2.6564038 1968
1.7573388 -14.032388 2.6586564 1827
5.9394817 -2.6459997 2.5884764 715.33331
6.04986 -2.6188235 2.6220767 768.5
6.1456356 -2.5993316 2.652385 803
6.2124767 -2.5805213 2.6727395 890
6.4281673 -2.5235834 2.6023564 1085.5
6.5267072 -2.4973958 2.6318102 1086
6.6169801 -2.4649608 2.6577265 1033
6.6541381 -2.4244611 2.6642802 899
8.258502 -2.0907581 2.6660161 997
8.3401127 -2.0708888 2.688355 1204
6.6323099 -2.3358014 2.6432412 895
6.6476059 -2.3820553 2.6555371 917
6.6213422 -2.2729077 2.6300919 842.5
6.5930457 -2.1651199 2.6045856 769
6.6001549 -2.1684351 2.6075957 802.5
6.6416864 -2.0926344 2.6116581 532.5
6.732316 -2.0746732 2.6413691 591
6.8061609 -2.0481901 2.6641614 676
7.0380054 -2.004241 2.5950952 984
7.1140504 -1.9740834 2.6172686 928.5
7.2232876 -1.9349209 2.6498432 931.5
7.2635241 -1.8896081 2.6586165 667
7.2927051 -1.8202477 2.6613626 631.66669
7.3499222 -1.759684 2.6748123 719
7.3684802 -1.7061726 2.676003 471.5
7.3477316 -1.6016257 2.659178 702.33331
8.5605459 -1.3288985 2.7031796 1279
7.3933697 -1.4975727 2.665823 748
8.5459948 -1.2359252 2.6938961 1301
7.0384293 -1.4562761 2.6818407 1151
7.4131222 -1.4250648 2.6666462 755
7.4533815 -1.3964608 2.6783457 651
8.5269442 -1.1429164 2.6835504 1325
7.0149713 -1.3585044 2.6642194 1148.3334
8.5000687 -1.0495453 2.6711149 1223
7.0088959 -1.2844774 2.6555052 898
7.0467415 -1.2396765 2.6658723 626
8.4622021 -0.91175449 2.6538606 1211
8.4805651 -0.98026186 2.6622055 1301
7.0561528 -1.151794 2.6624563 608.33331
8.4451056 -0.82216352 2.6452975 1187.5
7.0510449 -1.0433557 2.6525784 603
7.0706067 -1.0474211 2.6602404 649.5
8.4354067 -0.73418462 2.6393433 1290
7.0798264 -0.94225931 2.6566622 653.66669
8.4241276 -0.6465193 2.6332088 844
7.1035285 -0.87546694 2.661459 631
7.125989 -0.80814773 2.6661091 659.66669
8.3873892 -0.57833606 2.6200716 968
8.384717 -0.53533816 2.6181543 1146
7.1183939 -0.71842015 2.6585119 673
8.3524351 -0.447485 2.6062651 1263.3334
7.1361547 -0.63262409 2.6612196 639.66669
6.8287201 -0.59328365 2.6757576 1041.3334
7.1308894 -0.54398203 2.6555033 684.5
7.153264 -0.49369588 2.6621206 226
6.8103824 -0.49134663 2.6638331 809.33331
7.1288714 -0.45612779 2.6515305 689
7.1373816 -0.40445754 2.6531248 622
6.778738 -0.38931614 2.6471992 890.33331
7.1585107 -0.35369647 2.6597061 579
7.2216988 -0.32329512 2.6830108 584
6.7941103 -0.29228482 2.6504996 456
6.800005 -0.19428933 2.6506042 401.66666
6.8136525 -0.096678108 2.6545541 395.33334
6.7906308 0.001983339 2.6442397 404.33334
6.8281546 0.066947043 2.6592612 433
6.7968335 0.13231429 2.6465862 421.33334
6.8016996 0.23031621 2.6492276 423.66666
8.1008539 0.54780149 2.6905863 1374
6.8158531 0.32917055 2.6563432 451.66666
8.0833521 0.62806207 2.6866622 1453.6666
6.8125863 0.42738685 2.6570532 482
6.8288622 0.42841294 2.6636589 449
8.0489244 0.72683018 2.6779387 1478.5
6.7780428 0.52317417 2.6456399 462.66666
8.0326424 0.80652463 2.6750557 1522
6.7695036 0.62073201 2.6455526 478
6.8037014 0.62414145 2.6595125 493
8.0185308 0.90667719 2.6739707 1074.6666
6.7553573 0.70113373 2.643075 461
6.7808108 0.75359255 2.6557512 501
7.9893708 1.0046041 2.6682751 1770.5
6.7590981 0.81676912 2.6501255 392.33334
7.9614601 1.102263 2.6634781 1745.6666
6.7469273 0.93082225 2.6516018 525.25
7.9415379 1.2009352 2.6617901 1807.5
6.7405005 1.0459269 2.6563396 551
7.9187756 1.2989557 2.6596348 1714
6.7426634 1.1467664 2.6643867 552.33331
7.8947802 1.3966039 2.6574914 1736
6.7121491 1.2411591 2.6595669 523.33331
7.8815513 1.4759628 2.6581459 1125
6.7022467 1.3063792 2.6610572 606
6.2691784 -2.5742233 2.6919143 786
6.3333101 -2.5519261 2.7109659 843
6.4275274 -2.5254309 2.7403562 887.5
6.5291915 -2.5009053 2.7731154 973
8.4753275 -2.043201 2.7259586 709.5
8.5831299 -2.0051653 2.7547898 1403
6.6339011 -2.3385832 2.7846797 752
8.5850973 -1.9347972 2.7499671 1528
6.6261921 -2.2771072 2.7720566 700.5
8.6002359 -1.8448403 2.7477999 1242
8.667243 -1.7923434 2.7640126 1238
6.6055865 -2.172704 2.7482231 680.66669
8.6550579 -1.7186824 2.7553208 1190
6.6228914 -2.1051185 2.7445655 564
6.7048221 -2.0837262 2.7723668 547.5
6.8929954 -2.0258331 2.6922793 608
7.0003591 -2.0097923 2.7287459 709.5
7.1208158 -1.9575008 2.7657259 962.33331
8.6339951 -1.6201366 2.7425275 1186
7.1283784 -1.8626676 2.7573137 1085.5
8.6176605 -1.5237718 2.7315996 1222
7.1097589 -1.7598497 2.7390132 1184.6666
8.5902271 -1.4259838 2.7175558 1202.5
7.0903392 -1.6582881 2.7210181 791
7.0649529 -1.5566612 2.701364 1141.5
7.0762801 -1.5599341 2.705817 1166
6.9868565 -1.2441344 2.7837081 1046
6.9678726 -1.1683574 2.7696514 990.33331
6.9492011 -1.0758454 2.7546785 1014.5
8.4115086 -0.71162856 2.8025577 1396
6.9273796 -0.98397839 2.7390289 1072.3334
8.3964119 -0.6454035 2.795393 921.5
6.8979707 -0.87474555 2.7196643 1072.6666
8.3718872 -0.55726653 2.7846575 1312.5
6.8728056 -0.76801854 2.7028735 1008.3333
8.364851 -0.4926624 2.7806029 1432
8.3580894 -0.42834812 2.7768438 1440
6.8446426 -0.67919552 2.6865106 1061.5
8.3379259 -0.34220764 2.7683907 1441
