# .PCD v0.7 - Point Cloud Data file format
VERSION 0.7
FIELDS x y z intensity
SIZE 4 4 4 4
TYPE F F F F
COUNT 1 1 1 1
WIDTH 1226
HEIGHT 1
VIEWPOINT 0 0 0 1 0 0 0
POINTS 1226
DATA ascii
4.7216053 -1.5445524 -0.038444072 979.33331
4.7815638 -1.6516336 -0.016958565 919.90002
4.8578157 -1.7987641 0.0072323084 711.5
4.8287411 -1.8345314 0.0086979866 742.16669
4.9161816 -2.0535963 0.038005471 851.375
5.0085073 -2.3001771 0.078659236 956
5.0572724 -2.4475133 0.13193822 2944.4285
4.654263 -1.0035816 -0.11791618 711.21051
4.6819191 -1.0792416 -0.10641687 821.5
4.7115297 -1.1588669 -0.096303239 995.47058
4.7396884 -1.2474022 -0.081041604 993.64288
4.7708144 -1.3430059 -0.064004779 884.35712
4.814939 -1.4627893 -0.046574593 971.58331
4.8808641 -1.5753189 -0.025739819 941.66669
4.8603382 -1.6053888 -0.024396956 981.5
4.9371805 -1.7537702 0.00028783083 825.14288
4.9230728 -1.7982788 0.00041145086 896
5.012373 -1.9530638 0.031864673 774
4.9966774 -1.9895037 0.032593727 837.85712
4.9943428 -2.0983286 0.030599743 1040
5.1189351 -2.2201774 0.071432799 1174.75
5.08887 -2.273591 0.073467523 963.5
5.1478477 -2.3994884 0.12649018 2955.7144
4.6639805 -0.71018261 -0.10595879 241
4.7052965 -0.73845333 -0.11064643 305.57144
4.7344756 -0.86829644 -0.13267896 945.86664
4.7436213 -0.95815492 -0.12137684 951.85712
4.7817888 -1.0561578 -0.10763213 1122.6957
4.8160086 -1.151408 -0.090873867 1156.8235
4.857306 -1.241701 -0.072051167 1207.8125
4.8803663 -1.3250058 -0.060777932 1180.5555
4.9005318 -1.3990644 -0.045983642 1140.1538
4.9463625 -1.5154085 -0.032569915 922.38464
5.0206723 -1.5996052 0.010483086 351.60001
5.0153179 -1.6843406 0.0051097274 680.21429
5.0741415 -1.7781905 0.043109208 274.5
5.0851564 -1.8810859 0.041653484 562.5
5.1116285 -1.977229 0.055039048 658.5
5.1386538 -2.0756373 0.082359314 871.75
5.139431 -2.1297665 0.095955163 1712
5.2361984 -2.3596399 0.12071863 1310.6666
4.7508521 -0.76780719 -0.10737261 542.22223
4.7807527 -0.83017445 -0.11066437 795.6286
4.8271308 -0.91884059 -0.095293537 702.14703
4.8598857 -1.0126011 -0.077946812 606.12903
4.8805952 -1.1013256 -0.060948193 623.4762
4.9096928 -1.2009373 -0.049447566 488.70587
4.9382267 -1.2969205 -0.031052828 414.83334
4.9625406 -1.381465 -0.0059114993 474.70001
5.0052395 -1.5066203 0.0041331649 570.66669
5.0197592 -1.5742768 0.018543541 317.79999
5.300581 -2.3480685 0.11656708 1617
4.6774845 -0.16047677 -0.17863268 183.71428
-7.035202 -2.6946223 0.0091103315 1036
-2.1150181 0.17352843 -0.31994277 74
-2.1503518 0.13984866 -0.31755373 117
-1.9313323 -0.51338607 -0.21139124 3057
-0.085592031 -2.7200627 0.189426 55
-0.49648452 0.053346723 -0.30096519 1330.75
-0.49266505 -0.027128041 -0.28894129 346.5
0.98686481 -2.2735722 0.11980447 83.333336
3.4024215 -7.8819261 1.0321305 222.5
3.8900421 -7.8049102 1.0343193 170
3.4091058 -4.4438224 0.526968 208.5
3.46872 -4.4846764 0.53234357 158
3.5363238 -4.6060271 0.54530096 112
3.5904799 -4.5785699 0.54414725 125.33334
2.8873401 -2.4268026 0.15440136 93
2.4289925 -0.65147245 -0.13377662 2877.6667
2.4588223 -0.69047666 -0.12112896 2977.0667
3.8247845 -4.5043869 0.5429284 117
2.5010486 -0.61956942 -0.14856076 1865.5
2.4835 -0.70800978 -0.10184672 3793.5
2.6897979 -1.0878379 -0.059296638 1329
3.8883328 -4.488153 0.54284877 126
2.5890214 -0.49119729 -0.15680046 369
2.6705272 -0.6868915 -0.085347772 168
2.7512841 -1.0390803 -0.068454474 1847.8334
3.9897597 -4.4818373 0.54444057 168.75
2.6779568 -0.4856621 -0.13427514 1167.5
2.7260733 -0.57249856 -0.093914971 1728.2
2.743103 -0.67091519 -0.097309977 110.25
4.0891666 -4.4437413 0.54295158 212.25
2.7079844 -0.33548325 -0.14627577 370
2.7709355 -0.4186641 -0.10908143 988.66669
2.7565174 -0.49352556 -0.11854193 1685.1351
2.7749305 -0.55473208 -0.12432353 2015.3636
2.8493166 -0.64169443 -0.089823157 109.66666
4.1642976 -4.4351645 0.54361773 210
4.2141247 -4.4279833 0.54388463 504.5
2.8157516 -0.43141729 -0.16129436 1047
2.9200497 -0.63456571 -0.10177672 60.400002
3.0021238 -0.89330333 -0.094744682 115
4.2894616 -4.422677 0.54474396 586.25
3.1375358 -0.85117149 -0.033754706 81.5
3.3725424 -1.4622819 0.0090410709 132
3.3462701 -1.5215002 0.055585623 270.29999
3.3677688 -1.6091069 0.053019315 90.5
4.3895216 -4.4128428 0.54553473 467
3.187813 -0.79245847 -0.075261801 95.400002
3.2368588 -0.81285685 -0.042681903 93.785713
3.3659961 -1.1475013 0.010717571 93.400002
3.3811002 -1.196517 0.013554156 75.294121
3.3953366 -1.2752136 0.036087036 71
3.4368472 -1.4455899 2.5629997e-05 617
4.4879751 -4.3912187 0.54509747 351
3.2876353 -0.81744605 -0.033540905 88.666664
3.3820689 -1.0231165 0.013280451 77
3.3763483 -1.0918882 0.0027047396 63.75
3.4300158 -1.1877626 0.0033568144 64.238098
3.4733562 -1.2714931 0.023016661 63.400002
3.7280264 -1.8661903 0.097545385 613.5
3.7245574 -1.9004745 0.10779518 497.16666
4.5853248 -4.3650289 0.54410857 405.25
3.4482515 -0.89753902 -0.0022985041 147.8
3.4302595 -0.93938112 -0.0093349516 156.60001
3.4705038 -1.0971047 0.0020991862 83
3.5287061 -1.1705095 0.0069481134 74
3.5810614 -1.223738 0.013482749 103.28846
3.7182848 -1.7258526 0.11936477 157.75
3.7587919 -1.8337126 0.099888802 955.125
3.7875004 -1.8802333 0.12516615 792.66669
3.8505676 -2.1110761 0.11193487 1246.5
3.8667719 -2.1530125 0.11103767 1315
4.6811953 -4.3341036 0.54254764 329.5
3.6737189 -1.2218853 0.0197016 118.32307
3.7252204 -1.2559663 -0.033321023 79.333336
3.7452884 -1.3533214 -0.0076062977 126
3.8204377 -1.6620235 0.083744228 3453.2222
3.8392737 -1.7591972 0.072509646 2035.5
3.8728759 -1.8823349 0.15523216 342.33334
4.7541952 -4.3170099 0.54188901 319.5
4.806797 -4.3220968 0.54299712 368.5
3.7351723 -1.215559 0.0098325014 94.666664
3.7453768 -1.2452143 0.028720647 114
4.8733869 -4.2794704 0.53976935 562.5
4.9607821 -4.22263 0.53535742 644.75
5.0560579 -4.1962366 0.53376913 528.25
5.1498861 -4.1265559 0.52797121 648
4.8210349 -2.8343463 0.27314544 412
4.8296032 -2.901742 0.27635825 236
4.8320017 -2.9517858 0.31267452 153.5
4.8698196 -3.1579154 0.28841323 2684.3333
5.2190747 -4.137661 0.52952904 204.5
4.8648891 -2.6912847 0.26539844 615
4.8380041 -2.7691371 0.26969159 512.75
4.9355721 -2.5910583 0.22904068 726.5
4.8980064 -2.6334522 0.26190722 650.75
4.9908667 -2.5339577 0.22517312 828.64288
4.4266458 -0.59377927 -0.020930797 333
5.0758433 -2.4716928 0.21997297 1040.7142
4.4893847 -0.62437463 -0.030617028 171.5
4.5499611 -0.65166515 -0.049955308 218
5.1682048 -2.4291472 0.21722364 936.23077
4.5625019 -0.46413732 -0.062148452 305.3125
4.6390696 -0.69017369 -0.066871077 247
4.7084069 -0.72514558 -0.048298508 311.66666
4.9624414 -1.4215856 0.11399695 538
4.9660897 -1.4380277 0.11433208 408
5.0152216 -1.5736563 0.10855272 297
5.0419083 -1.6739469 0.1103467 271.07693
5.0637007 -1.7563169 0.13264838 237.83333
5.1021891 -1.8537711 0.14116827 246.16667
5.1200762 -1.9566048 0.13876724 582.70001
5.1529922 -2.0623055 0.18459988 255
5.1745749 -2.1532815 0.19719702 390.71429
5.1925993 -2.2126203 0.23108244 283
5.2275896 -2.3518684 0.20895123 296
5.2203565 -2.4037652 0.20199388 1051.6666
4.6298604 -0.22114098 -0.088273153 278.83334
4.7411041 -0.74948674 -0.032262743 342.05554
4.7908673 -0.81671637 -0.026951551 373.42426
4.8353686 -0.90422744 -0.011005521 391.36667
4.8657961 -0.99384153 0.0080752671 448
4.8892365 -1.0958766 0.01546067 457.3793
4.9107594 -1.1875782 0.042731643 429.08694
4.9414415 -1.2870699 0.041950732 403.78946
4.9627457 -1.3858798 0.071904331 362.1875
4.9914761 -1.4821281 0.072722018 363.16666
5.0168276 -1.5618895 0.075013459 301
4.6682434 -0.13069797 -0.13676569 215.40579
4.6628828 -0.19926941 -0.12561528 232.67741
5.4694166 1.2279249 -0.29560369 87
5.4967728 1.1114376 -0.27136818 95.666664
5.9165134 -0.019529186 -0.14113793 125
5.4888391 1.3078507 -0.3148711 100.5
5.6056099 1.0686277 -0.26941612 105.5
5.8579283 0.47664523 -0.22433454 98.333336
5.9585438 0.17855528 -0.15264118 131.5
6.8301382 0.41805524 -0.17180833 118
6.96523 0.1951969 -0.14574321 95
-5.8953323 -0.93892694 -0.17917804 2553
-5.0648441 -2.3860078 0.051903903 2262
-5.1517324 -0.62059808 -0.19076306 1397
-4.6463089 -0.91680729 -0.12839919 1442
-4.0945606 -1.9636945 0.03687191 4508
-4.0828247 -2.0115623 0.043776453 4326
-4.0746002 -1.9096093 0.030482471 4382
-3.958874 -2.0850649 0.058881849 1734
-4.2986498 -0.79463601 -0.13012898 1628
-4.2639465 -0.74332243 -0.13566056 2166
-3.7826889 -2.1437469 0.074210972 1802
-4.0345459 -0.97321403 -0.094355673 342
-4.1146765 -0.63925475 -0.14349821 784
-4.0701628 -0.68594396 -0.13517408 974
-3.9740946 -0.92068553 -0.098919258 1659
-0.55156064 0.060398046 -0.1974735 172
0.96848249 -2.2598393 0.20157218 125
1.0419576 -2.1749008 0.19644135 1420
3.4054809 -4.4361191 0.62843645 195
3.466054 -4.4670053 0.63354099 147
3.5346909 -4.5722127 0.64752692 104
3.5613725 -4.5640831 0.64721209 81
3.8216741 -4.5046334 0.64628989 103
3.8896449 -4.4840751 0.64540273 135.66667
3.9865401 -4.4635463 0.64513028 140
2.6929536 -0.49310559 -0.042240471 1948.5
2.734709 -0.57091957 -0.014261425 1671.8
2.7721519 -0.64707911 0.016954362 116
4.0859795 -4.4267974 0.64296412 190.25
2.7684796 -0.40355611 -0.012584239 1905.3334
2.7549016 -0.48562241 -0.022695035 3005.5588
2.7621205 -0.53974098 -0.0041294098 3160.1599
2.829901 -0.63452053 0.021272898 124.5
4.18153 -4.4120231 0.64323997 328.66666
4.1995473 -4.4255629 0.64520252 331
2.8035362 -0.39143971 -0.027672231 2924.75
2.8203285 -0.409464 -0.054123014 3039
2.940814 -0.62078869 -0.0045075715 56.833332
3.0189514 -0.86122161 0.0036897361 182
4.2862468 -4.4065299 0.64474386 552.5
2.9856212 -0.61376548 0.004630059 65.5
3.0970068 -0.81150723 -0.002404809 141
3.122447 -0.84198242 0.024856478 63
3.3605514 -1.4530215 0.13108262 127
3.3498223 -1.5068543 0.13916805 208.85715
4.387702 -4.4077902 0.64692008 418.75
3.1759577 -0.76130867 0.02848205 97.909088
3.2178259 -0.81145597 0.037116259 132.3125
3.4155319 -1.3093486 0.085047066 82
3.4242313 -1.3526855 0.084318936 103
4.4858484 -4.382987 0.6459232 284.25
3.2817008 -0.81513727 0.037639916 88.75
3.4132757 -0.98992062 0.092427552 186.09525
3.4293351 -1.0619327 0.096685499 132.27026
3.4412193 -1.1748621 0.12333733 126.8125
3.4642613 -1.2584476 0.12398145 67.625
3.465461 -1.344418 0.13874933 70
3.7370279 -1.9515213 0.18975019 96
3.7542114 -1.9896985 0.19098282 118
4.5800085 -4.3384986 0.64248884 290.75
3.4535584 -0.88635463 0.058199704 165.15625
3.4333603 -0.93897724 0.069327086 122.7
3.4604058 -1.0581505 0.11730739 113
3.5759792 -1.2129986 0.10489696 157
3.7326376 -1.6038489 0.20544392 107.25
3.728132 -1.6788913 0.18431479 121.75
3.7750263 -1.7942928 0.17085546 306.25
3.844044 -1.8885866 0.19147748 168
3.8629308 -1.9248646 0.19256622 105
4.6811724 -4.3341565 0.64384991 269.75
3.6745381 -1.2137105 0.11103347 213.51515
3.7281318 -1.2612625 0.090474427 127
3.7559004 -1.5720971 0.21229434 57
3.8188529 -1.6508434 0.18813294 2997.7646
3.8916125 -1.9293836 0.19323713 87.333336
4.7515535 -4.3046927 0.64165854 245
4.8046651 -4.3116617 0.64342153 323.5
3.7373574 -1.2175965 0.10941374 246.91667
3.7492726 -1.2342623 0.12767383 470.77777
4.8660889 -4.2491698 0.63713509 376
4.9608908 -4.2194896 0.63525158 408.25
5.0487103 -4.1686468 0.63070571 534.5
5.1473579 -4.1141415 0.62584859 726.66669
4.8182349 -2.8188202 0.36936158 409.5
4.8239312 -2.8935013 0.38677984 234.33333
4.8147335 -2.9468937 0.41387522 135
5.2091446 -4.1049566 0.6257273 225
5.2654996 -4.1505117 0.63198608 137
4.8601046 -2.6827254 0.36239862 587.28571
4.8353381 -2.7634921 0.36021221 499.85715
4.9308281 -2.5698984 0.34821224 689.83331
4.8951912 -2.6187 0.35248995 664.25
4.9863815 -2.5136874 0.3431806 864.28571
4.4016323 -0.57198763 -0.010860175 1154
4.4199438 -0.59053653 0.037512362 439.82352
5.0728426 -2.4544518 0.33755726 1036.0714
4.507535 -0.46607727 -0.02995193 872
4.5032711 -0.63122654 0.047005892 172.5
4.5539136 -0.65455192 0.03726387 267.5
5.1637321 -2.4034729 0.33238119 975.14288
4.5580177 -0.4530381 0.016599506 367.42105
4.712348 -0.72650266 0.048402429 347
4.9607196 -1.4053823 0.1871267 403.5
4.9828582 -1.4768007 0.18281174 298
5.009666 -1.565541 0.1963104 265.06668
5.0348735 -1.658071 0.21877837 245.7
5.0607958 -1.7507707 0.22920388 225.5
5.0934381 -1.8421433 0.23501831 221.83333
5.1151628 -1.9304427 0.24444407 221.28572
5.146245 -2.0250695 0.24698299 227.75
5.1757469 -2.1396451 0.3047691 265.14285
5.1929936 -2.2157643 0.31536114 308
5.2152085 -2.3285511 0.32932454 458.57144
5.2223468 -2.3866851 0.30054128 1156
4.6267743 -0.18590698 -0.017122835 411.66666
4.7331495 -0.74675643 0.062644094 397.23077
4.7757807 -0.80623114 0.076806694 410.53659
4.8205156 -0.89445049 0.08775112 410.62857
4.8534193 -0.98502827 0.10248572 448.11111
4.8776231 -1.0785106 0.12070978 432.58823
4.901577 -1.1768881 0.1405085 379.25
4.9292006 -1.2740643 0.1447261 351.27777
4.9519563 -1.3572187 0.15646073 334.53845
4.9839101 -1.4609951 0.18279415 330.60001
4.646059 -0.14302048 -0.050601363 233.71428
4.6454253 -0.18184558 -0.048137665 260
7.3923311 3.3322453 -0.50292468 113
-1.9462264 -0.49309027 -0.070102602 3327
-0.12687755 -2.7103422 0.30085379 76
-0.061351061 -2.8020308 0.31513274 148
-0.025667906 -2.8292286 0.32000417 528.5
-0.51952338 0.045840196 -0.083323866 156
0.71169877 -2.4004633 0.29504293 80
3.7939432 -7.7903223 1.2159711 309
3.8399565 -7.7983093 1.2181405 292
3.8858278 -7.7545352 1.2129505 218
3.4326639 -6.105464 0.96842194 133
3.5058987 -6.075305 0.96576214 114.5
3.4243183 -4.4235377 0.72919524 184
4.551806 -7.5140462 1.19389 199
4.600224 -7.5488958 1.1999524 255
3.9086974 -4.4741025 0.74718487 133
3.9843357 -4.4480548 0.74519145 124
2.7536819 -0.57019937 0.087983698 1319
2.7290745 -0.64643562 0.095130801 48
4.0841136 -4.4180799 0.74319398 190
2.7810602 -0.38506567 0.057440132 2430.8889
2.7637663 -0.46691054 0.07018441 2289.0801
2.7830672 -0.52979571 0.087117851 3049.2
2.8402503 -0.62452251 0.10263461 149.5
4.1585588 -4.4009023 0.7424475 144
4.2085662 -4.396215 0.74292326 113
2.797859 -0.38025108 0.032345474 3071.8333
2.8166897 -0.44551879 0.10303521 130
2.9130499 -0.62217581 0.10817593 227
4.3117423 -4.4145226 0.7478894 187
3.0956907 -0.82171088 0.11504641 119
4.385026 -4.3911672 0.74625647 204.25
3.1758552 -0.74704164 0.12521416 125.77778
3.2053766 -0.80547374 0.13089734 113.09303
4.4820189 -4.3593149 0.74397027 205.5
3.2780144 -0.80482584 0.13514385 90.333336
3.3558502 -0.84033489 0.14541912 239.5
3.4101288 -0.96038532 0.15956068 286.06818
3.4384642 -1.0468278 0.17519301 277.41537
3.459305 -1.1494107 0.20989424 249.03847
3.4789481 -1.2247646 0.19378078 77.85714
4.5794263 -4.3339434 0.74262512 244.75
3.4254293 -0.88589048 0.15228021 446.57144
3.4270887 -0.94042039 0.17045313 309.79999
3.4629056 -1.0481021 0.19576663 666.57141
3.5030494 -1.1537204 0.23667186 419.60001
3.5698426 -1.1942469 0.2101413 161.28395
3.7376361 -1.6055329 0.26360792 110.83334
4.6755009 -4.3040752 0.74062037 202.5
3.6684315 -1.1983491 0.21244681 291.38
3.7440431 -1.391147 0.22926068 78
3.7526419 -1.548715 0.28845608 63
3.8118517 -1.6313329 0.27826792 2436.6191
4.774169 -4.2876124 0.74059093 254
3.7364457 -1.1964291 0.22097075 393.37036
3.7479043 -1.2223736 0.20370632 265.16666
4.861042 -4.2246666 0.73369324 526.75
4.9498358 -4.1750898 0.72874951 628.75
5.5983191 -5.8464966 0.98139727 746
5.0424209 -4.1559019 0.72821987 537.33331
5.0825272 -3.9925623 0.70599031 2496
5.1576104 -4.099278 0.7229259 554
4.8130512 -2.7997508 0.46513259 409
4.8234448 -2.8713529 0.47377414 266
4.8404045 -2.9626701 0.48484832 142
5.2070336 -4.0918312 0.72305036 178.5
4.8584442 -2.6618047 0.44942319 607
4.8329496 -2.7422729 0.4586091 494.75
4.927886 -2.5570996 0.43792313 730
4.8922086 -2.6056604 0.44321996 647
4.9833136 -2.5008321 0.43193394 855
4.4055786 -0.58232528 0.14318234 660.95001
5.0669003 -2.4366863 0.42529917 1093.1428
4.5047007 -0.4539336 0.11140153 727.66669
4.4812331 -0.61610138 0.099098414 306
5.1702619 -2.3783567 0.41949844 1271
5.1600275 -2.3943124 0.42129976 967.5
4.5699196 -0.441728 0.1163201 401.92307
4.6065993 -0.67256671 0.14586997 251
4.6998558 -0.71538532 0.1617257 334.20001
4.9494028 -1.3723154 0.26623321 395
4.9750628 -1.4494668 0.28536195 328.125
5.0050783 -1.5470854 0.29633301 252.375
5.0311532 -1.6428671 0.3072477 231.3
5.0614824 -1.742097 0.31849122 221.33333
5.0921674 -1.836401 0.32561958 217
5.1133628 -1.9265896 0.34284586 222.71428
5.1535244 -2.0343723 0.35118413 247.5
5.1719031 -2.1159272 0.37698776 253.39999
5.1958685 -2.2118144 0.39966971 299
5.2139697 -2.3244452 0.41347611 633.25
4.7336307 -0.73759848 0.15762523 387.10001
4.7715268 -0.78902149 0.17951721 410.72501
4.8135734 -0.88036203 0.19405949 401.07501
4.8455753 -0.97444916 0.20149583 424.80554
4.8732591 -1.0677338 0.22355473 396.5
4.8962989 -1.1629503 0.23605853 363.04349
4.9251122 -1.2605351 0.24823278 328.05264
4.9481754 -1.3398007 0.2437281 313.60001
4.9815793 -1.4446478 0.26566356 292
5.0026956 -1.5108067 0.27212495 220
4.6360455 -0.1467455 0.083162397 293
4.6285071 -0.16878214 0.077396631 632
7.3924866 3.306206 -0.36999574 89
-4.3279505 -0.71866298 0.061333925 944
-4.2339554 -0.66533279 0.055688351 2541
-4.2265644 -0.61589414 0.049000412 4166
-4.081708 -0.90139633 0.091064304 2692
-4.0793371 -0.94967985 0.097778618 2713
-2.0926187 -0.65729862 0.093666047 515
-2.0407898 -0.72657138 0.10417867 1012
-1.9430072 -0.68517417 0.10024649 1567
-1.3357427 -0.46179539 0.080499589 1025
-1.3800867 -0.49447 0.084197879 939
-0.048863173 -2.7445204 0.42155927 305
-0.047801256 -2.7931356 0.42839134 844
-0.3564055 0.03167839 0.030417919 579.5
-0.29814029 0.089836016 0.023490429 1080.3334
0.73448682 -2.3451152 0.38039416 867
0.67883134 -2.4078131 0.38812971 17
3.4257369 -4.415617 0.82964373 261.5
3.8173249 -4.4542899 0.84431291 91
3.0854797 -2.2427599 0.46239263 51
3.880873 -4.4517798 0.84533036 122.5
2.6359448 -0.60935271 0.19804674 2746.1819
2.6656449 -0.64439905 0.17883497 1942
2.6931882 -0.71758723 0.24904531 213
2.757524 -0.99348521 0.29149365 1326
3.9822867 -4.4396014 0.84564209 133
2.6852555 -0.59751916 0.20536828 2657
2.7357273 -0.65047193 0.22271085 2400.6799
4.0772867 -4.3965631 0.84071457 185
2.7771697 -0.37614736 0.11744317 2173
2.7712107 -0.46345431 0.16522723 2211.3181
2.8051219 -0.51628971 0.17734295 3062.6667
2.8298066 -0.63143927 0.17153674 153.66667
2.8992474 -0.7049154 0.24948722 79.333336
2.9191403 -0.79150844 0.27956438 113
2.9630678 -0.8603251 0.26449621 191
4.1690936 -4.3895631 0.84179401 154
4.2186627 -4.3793955 0.84133327 120
2.7983439 -0.36369571 0.15096512 2691
2.7945652 -0.37201163 0.16935545 2188
2.9372764 -0.62579137 0.16711229 738.20001
2.927305 -0.67276448 0.24845326 98.888885
2.9721286 -0.7764954 0.27440649 102
3.0150623 -0.82103443 0.28015113 195.66667
4.2810779 -4.3730168 0.84185684 187.75
3.0615025 -0.67780238 0.23238194 59
3.1043558 -0.74882001 0.24297017 180.8421
3.1444254 -0.79352856 0.2219395 89.333336
4.3804383 -4.359292 0.84214771 215.25
3.1478872 -0.72907472 0.21173757 188.8125
3.2146633 -0.80387259 0.2417174 93.10714
3.3350139 -1.0693069 0.29664439 244.11111
3.3672001 -1.1781898 0.33761913 96.272728
4.4650946 -4.3319697 0.83984315 190.66667
3.3072481 -0.80162829 0.23908192 88.727272
3.3617294 -0.85570288 0.2383312 403
3.3915901 -0.95770299 0.24178118 356.57999
3.4246335 -1.0352588 0.25467485 205.16216
3.4449568 -1.1482612 0.29205143 267.77084
3.4563804 -1.2313262 0.33161718 64.333336
4.5762191 -4.2917595 0.83618104 205.66667
3.4525144 -0.84587425 0.27720809 178.53847
3.4299679 -0.95398116 0.23605072 380.20001
3.45438 -1.0275445 0.23812491 573.5
3.501054 -1.1449299 0.28012228 389.14285
3.5662229 -1.1865612 0.30409414 202.91176
3.5934312 -1.2586662 0.28320199 492
3.7342472 -1.5839549 0.36668128 107.375
4.6693006 -4.2716184 0.83544123 193.75
3.670675 -1.1842341 0.31388044 314.5
3.7524137 -1.5580074 0.34404135 50.5
3.8094294 -1.6184931 0.37025994 2584.8096
4.7616668 -4.2302742 0.83121789 216.5
3.7351213 -1.1801217 0.31602943 494.6207
3.7482231 -1.1987795 0.31461936 328.25
4.8513422 -4.1822805 0.82588005 382.25
4.9442816 -4.1503239 0.8233757 386
5.0405397 -4.1295505 0.82289946 492.75
5.1429482 -4.0870242 0.81908572 810.66669
4.8138132 -2.7939291 0.56189102 386.5
4.8142028 -2.8628876 0.57240444 224
4.8187256 -2.9458272 0.58575428 129
5.2023044 -4.0714626 0.8184191 184.5
4.852016 -2.6585701 0.54229462 619.75
4.8244295 -2.7345297 0.5531702 502.66666
4.9196649 -2.5415478 0.53067595 749
4.8866386 -2.5937409 0.52901518 697.57141
4.9774814 -2.4814401 0.51888579 878.85712
4.3898926 -0.57248247 0.24090558 350.81818
5.0619912 -2.4196174 0.5120303 1184.0714
4.4886227 -0.43404078 0.21940207 642.20001
4.483829 -0.61410719 0.22972697 122
4.5753078 -0.65305704 0.23377782 213
5.1572394 -2.3524344 0.47532672 2210
5.1569905 -2.3778591 0.51093715 990.46155
4.5793171 -0.42939878 0.21947694 398.60001
4.5999389 -0.66326636 0.2627514 246
4.7101192 -0.71435857 0.25611734 375
4.9420633 -1.3547313 0.36233771 752.09088
4.9750977 -1.4454952 0.38429433 314.84616
4.9965906 -1.5301223 0.39570212 266.76923
5.0261612 -1.628089 0.41265255 245.28572
5.0468154 -1.7172792 0.41067791 225.625
5.0865145 -1.8222785 0.43015194 216
5.1117573 -1.920817 0.43168318 228.375
5.1258307 -1.9905556 0.45752978 235
5.1695046 -2.1097195 0.46834266 287.125
5.193408 -2.1995146 0.48291892 566.5
5.2105846 -2.305284 0.49510372 630.71429
5.2118073 -2.3479605 0.5357632 1448
4.7301531 -0.72538489 0.27025086 406.16666
4.7675862 -0.77814937 0.28032541 414.89191
4.8051176 -0.86332554 0.29299712 418.97296
4.8394146 -0.95973229 0.29820049 428.69232
4.8689771 -1.0554591 0.31547391 429.22223
4.891335 -1.1495221 0.33256698 379.36365
4.9184251 -1.243767 0.34519732 346.78946
4.9423833 -1.3188367 0.36800545 327
4.9813108 -1.4381372 0.36100012 297.5
4.6331825 -0.13163051 0.17921823 399
5.2750621 1.1840423 0.040669054 24
5.2918401 1.1094654 0.050085425 137
5.3135648 1.0177712 0.061792284 136.5
5.6986823 0.353809 0.11261883 84.5
5.7216978 0.16107589 0.18703359 172
5.7077131 0.4234944 0.15266401 131.5
5.862433 0.060729459 0.18177485 86
-2.0326531 -0.70625925 0.24652803 1038
-1.8703949 -0.45302373 0.21029204 3196
-1.5829041 -0.41540852 0.2032463 2173
-0.055850029 -2.6995316 0.52742797 653
-0.043470621 -2.7571459 0.53622741 854.66669
0.69497609 -2.3565218 0.47329134 269
0.79803753 -2.3175781 0.46711808 22
3.4316542 -6.0567651 1.103922 114.5
3.5029459 -6.0533032 1.1048161 137
2.1949513 -0.77772713 0.31489503 413
3.4188743 -4.3976331 0.9298923 218.33333
4.3700886 -6.93571 1.2721894 109
2.2229397 -0.75412196 0.35071635 301
2.2430806 -0.78545725 0.33619171 3557.7778
2.2905507 -0.93537915 0.37629956 3357
2.319622 -0.96197724 0.37884498 3387.5
4.2055507 -6.2495427 1.1534884 191
2.4797139 -1.0447342 0.38240987 3332.1111
2.5599415 -1.0329586 0.35702908 1498
2.5539308 -1.0685217 0.38174313 2357
2.6039004 -0.93621135 0.3536132 3216
2.670011 -0.99986577 0.39440292 3249
2.6565373 -0.85124105 0.33443701 1592
2.7323236 -0.99232733 0.36328477 2665
2.8270936 -0.79694957 0.33707774 3684.6499
2.8094063 -0.92103195 0.30739987 140.5
4.0790777 -4.39393 0.94327962 156
4.9428473 -6.883677 1.2784401 207
2.7942016 -0.43002123 0.26992947 2680
2.8266244 -0.49900013 0.24746305 2769.4666
2.884371 -0.74127769 0.27276051 130.5
2.8663092 -0.78148234 0.29408073 761.83331
2.9689915 -0.87448597 0.31682736 92.5
4.1654644 -4.3671875 0.94039381 219
4.2160473 -4.3694229 0.9421984 307
5.017602 -6.8346829 1.2723255 234
2.8125331 -0.39228275 0.26084518 1645.75
2.856616 -0.49295449 0.29662567 3270.3333
3.0086 -0.85111368 0.30970997 118.5
4.277667 -4.3557372 0.94129241 217.25
3.1520562 -0.83372068 0.3625713 1435.5294
3.1542733 -0.89785028 0.39619637 1578.5
3.2475431 -1.1175525 0.42550415 212
3.2296808 -1.1862701 0.44662267 502
3.3293314 -1.4688334 0.49234861 3791
4.3758864 -4.3330297 0.93977702 173.25
3.2109489 -0.81907105 0.32441068 284.78571
3.2573256 -0.8627153 0.38545322 695
3.3320305 -1.0951885 0.35377616 84.46154
3.3529468 -1.1690692 0.37358725 143.09091
3.3807583 -1.2115449 0.38091159 61.25
3.4485829 -1.3181611 0.39191598 33
3.3842309 -1.4090686 0.44368321 38
4.4760523 -4.3264179 0.94154823 187.75
3.3085225 -0.7998873 0.32216889 124.625
3.3212903 -0.82651931 0.36174101 1008.7
3.3865676 -0.90743631 0.36159998 1331
3.4267795 -1.0655181 0.39633298 73
3.4322977 -1.1554644 0.35419661 46
3.4697478 -1.2310619 0.37105954 46.200001
4.6051788 -4.2685719 0.93456233 190
3.4282799 -0.88523805 0.31546521 121
3.5677485 -1.1759938 0.36850905 178.27272
3.733392 -1.5627552 0.43797135 88.800003
3.7190757 -1.606689 0.49298233 395
4.6863441 -4.2325325 0.93036723 212
3.6560299 -1.1774865 0.37261534 257.67999
3.7306972 -1.3757288 0.43094712 53
3.7305961 -1.4340219 0.44662708 30
3.7994645 -1.5704162 0.48430932 4098
3.8077443 -1.5939558 0.47258401 2797.8845
4.7655158 -4.2456675 0.9356153 310.25
3.7259591 -1.1749464 0.37697333 300
3.7429023 -1.184839 0.37971628 341
4.8503299 -4.1765137 0.92541397 343.25
4.9422483 -4.1397963 0.92179823 303.25
5.0367546 -4.1131234 0.92032623 419
5.1504068 -4.1037378 0.92303336 565.33331
4.8144035 -2.7888203 0.6600644 402
4.8134813 -2.8290339 0.70075655 288.5
5.2143984 -4.0634961 0.91800761 173.33333
4.8472691 -2.6382358 0.66448164 652.875
4.8182087 -2.7100441 0.67743218 534.5
4.9198027 -2.5224416 0.64502108 813.16669
4.8842063 -2.5706584 0.65280306 742
4.3488536 -0.56267244 0.37525964 121
4.9742746 -2.4650106 0.63652796 934.07141
4.3909712 -0.57134765 0.33050984 522.05261
5.0583591 -2.4026124 0.62885135 1217.1428
4.4996147 -0.3960726 0.31020784 516
5.1542339 -2.360389 0.62612772 1040.2858
4.5668283 -0.41478279 0.30958873 449.34042
4.6933079 -0.69948536 0.38840812 383
4.9443178 -1.3446261 0.47836578 435.20001
4.9699163 -1.4215463 0.47391766 355.29999
4.9972563 -1.5132635 0.49265659 286.66666
5.0237036 -1.6117904 0.51738387 264.39999
5.049159 -1.7111523 0.52749151 257.22223
5.0801735 -1.8000227 0.52557504 241.625
5.1070175 -1.8942552 0.53343296 247
5.1428852 -1.9936479 0.54940468 258.20001
5.1649666 -2.0927663 0.57501531 278.5
5.1867509 -2.1792152 0.59274888 351.5
5.202353 -2.2743633 0.61230463 339.33334
5.2109041 -2.3380466 0.62510693 1269.5
4.7276983 -0.71518487 0.32683563 439
4.7622666 -0.7625435 0.3761065 484.20514
4.8033209 -0.85213012 0.38591534 480.24243
4.8379841 -0.94325495 0.39782202 488.02856
4.8648796 -1.0363741 0.4141376 481.11765
4.8886518 -1.1369138 0.42456067 433.95456
4.9166164 -1.2306349 0.44801927 387.89474
4.937037 -1.3004476 0.46463615 374.55554
4.6260881 -0.11993695 0.29027951 288.83334
5.7542686 0.18024772 0.25972474 174
5.7136822 0.45306081 0.19963986 137
5.8385019 0.092031367 0.30264246 85
5.8859644 0.60320002 0.19461739 118
5.7735348 1.1826454 0.12373742 99
6.4525137 1.0614169 0.18261033 72
6.4786978 1.0550805 0.1851505 80
-4.4714804 -0.67163467 0.25728112 3139
-4.4547386 -0.74688309 0.26764172 3153
-4.2853994 -0.78858852 0.27237242 2165
-4.0608997 -0.87328899 0.28276807 2699
-4.0804815 -0.92296863 0.28984177 1548
-2.4667199 0.26908201 0.11545002 47
-2.3901365 0.29977992 0.11082986 1067
-2.2975128 0.3277894 0.10647851 1408
-2.2405288 0.35892674 0.10193512 533
-2.1170304 0.19755283 0.12291399 59
-0.30100393 0.10569731 0.22801876 152.5
0.56215239 -2.3556826 0.56999189 807.5
0.63512373 -2.3793719 0.57224375 688
1.1133435 -1.1385483 0.4301514 2084
1.1278987 -1.1523621 0.43159789 4081
1.2553458 -1.1226165 0.48669666 566
1.3753479 -1.1038578 0.4743554 703
1.5295086 -1.0763794 0.41804487 3597.1667
1.5506508 -1.1112609 0.44742382 2936.75
3.4262087 -6.0539193 1.2489315 150
3.4991908 -6.0264988 1.2450399 141
3.4185724 -4.3664289 1.0259794 168.66667
2.2079716 -0.74338365 0.42000067 1681.3334
2.2504601 -0.76697683 0.41007006 3537.3333
2.2947183 -0.91866934 0.43495935 3599.5
2.330904 -0.94116604 0.43122476 3379.2
4.2011542 -6.2283487 1.2998596 153
2.3141112 -0.66575772 0.44602245 3827.6001
2.4004731 -0.94213212 0.45740902 2193.5
2.4708288 -1.0098746 0.45072734 3155.0588
2.9762011 -2.4266889 0.71879792 80
2.9591084 -2.5044692 0.73945844 48
2.5373397 -1.0324279 0.45228636 3039.5625
2.9414752 -1.7117411 0.62170762 3035
2.7395182 -0.96704924 0.45216817 3771.7646
2.9848878 -1.7194207 0.62075269 3411
2.8282795 -0.80496538 0.39707559 3403
2.7996931 -0.91178751 0.4836508 3458.6667
3.026212 -1.3696537 0.54959875 4274
4.0765963 -4.3762398 1.0418363 157.5
2.8022344 -0.41230142 0.36539167 2654.8572
2.8429804 -0.54677463 0.3862806 2365
2.8457651 -0.73737681 0.41554928 3658.1667
2.8582025 -0.76232141 0.40851372 3940.1177
3.2357717 -1.8234153 0.63738883 2067
3.3184502 -1.8945763 0.65623903 2727.5
4.1880202 -4.3487029 1.0389743 116
4.1722355 -4.3616824 1.0413512 148.66667
2.8198323 -0.40306187 0.36616534 2336.8235
2.8663888 -0.47323275 0.3871001 3398.6516
2.8736768 -0.53094089 0.40803593 2956.9231
3.0496068 -0.82246339 0.48655266 38.666668
3.05194 -0.90887052 0.4272871 342
3.0873961 -0.99520469 0.48375803 2309
3.1698403 -1.1481211 0.46754879 1981
3.1488018 -1.2139357 0.52940005 3069.6667
3.1800923 -1.2611992 0.55859774 4233
3.2979252 -1.4947538 0.55483603 1747.6666
3.2804549 -1.5470054 0.55034238 1689
3.2983909 -1.6680508 0.62327766 555
3.370868 -1.9037168 0.65741724 3923
3.4075682 -1.9110944 0.65879041 4026
3.504482 -2.1419566 0.68312657 2966
4.2626891 -4.3398571 1.0393023 145
4.8636837 -5.9845953 1.2721999 194
5.1612883 -6.8242097 1.4429944 228
3.1600485 -0.82350117 0.43371582 2184.7241
3.1391873 -0.90310085 0.458983 2603.8386
3.1517649 -0.96821404 0.51177901 2317.7778
3.2002468 -1.1036668 0.45093691 1498
3.2030222 -1.1996843 0.45270884 348.5
3.2892139 -1.2790064 0.55221432 334
3.3274317 -1.4885163 0.55291903 4134.5557
3.3577254 -1.5373321 0.54763132 2734.8125
3.4699516 -1.6975011 0.5862717 3750.1819
4.376874 -4.343605 1.0437732 183.25
3.1871231 -0.80447149 0.4474929 1656.2
3.2350376 -0.86950773 0.44022655 1514
3.286824 -0.98369813 0.51337767 1997
3.355531 -1.1731656 0.48486298 174.375
3.3289499 -1.2022796 0.51994634 168
3.5070822 -1.6639235 0.54328638 2481
3.4854858 -1.6870224 0.58603758 3759.5
4.4492226 -4.3181114 1.0406678 169
3.3383214 -0.84438807 0.47098875 1393.2
3.3227386 -0.9380064 0.45793724 3766
4.6015902 -4.2478857 1.0309168 158
3.7226961 -1.6301053 0.5436492 188.66667
4.657608 -4.2131829 1.0255466 169
3.6311414 -1.1817124 0.55636561 192
3.8031592 -1.575182 0.57752138 2738.1365
4.7536302 -4.1907501 1.0245142 413.5
4.8478403 -4.1620202 1.0222392 411.5
4.9361916 -4.1131744 1.0155673 261.5
5.0405865 -4.118711 1.0215039 334.5
5.1505032 -4.096961 1.0220559 520
4.8102765 -2.8158042 0.77570653 305.66666
4.826304 -2.9281938 0.79066098 126
5.2068405 -4.071032 1.0192764 209
4.8430786 -2.6218832 0.75482965 695.75
4.8192244 -2.7059913 0.77313602 562
4.910675 -2.5137467 0.73397934 887.75
4.8733649 -2.5583196 0.74188435 789.33331
4.9778657 -2.4441884 0.74075949 1037
4.3734999 -0.56878322 0.38507152 223
5.0544086 -2.3860469 0.74508071 1316.5714
4.4940262 -0.39800221 0.38325852 489
4.4780898 -0.61864859 0.39897859 103
5.1445785 -2.3468916 0.72038531 1090.125
4.5348349 -0.40225807 0.37643129 367
4.7105608 -0.70994514 0.44063658 354.5
4.7145176 -0.7214179 0.49193084 220
4.940064 -1.3257679 0.56322157 429.125
4.9679441 -1.413933 0.57242894 394.6875
4.9905291 -1.5002002 0.59463727 331.25
5.0183897 -1.5980605 0.6010583 303.39999
5.0445356 -1.6906233 0.62682521 259
5.079061 -1.7853709 0.64388192 291
5.1036634 -1.8806176 0.63015467 290
5.1348548 -1.9790856 0.65590608 322.5
5.1601472 -2.0717423 0.67577159 332.85715
5.175426 -2.1448464 0.70761669 386
5.1984911 -2.2581363 0.72690451 356.66666
5.2056546 -2.321914 0.71202719 1218
4.6185431 -0.12625894 0.36374581 228
4.756793 -0.75686318 0.47092879 485.73334
4.8006725 -0.84218186 0.48264295 506.97369
4.8321137 -0.92897463 0.50035626 525.86664
4.8619614 -1.0281916 0.51808268 516.5517
4.8848066 -1.1179284 0.52710074 479.73077
4.913166 -1.2168239 0.54943269 441.47369
4.9318891 -1.2795088 0.56244975 406.83334
5.7679348 0.19728047 0.3565864 143
5.8753138 0.10400371 0.38130641 91.5
5.8399906 0.60410404 0.29921156 83
5.8321323 0.90920144 0.21425658 150
5.9011393 0.62609273 0.24879366 141
5.8613162 1.2428422 0.18603116 115
6.388236 1.754274 0.1039145 72
6.3995833 1.8035378 0.099560589 69
6.5785356 1.5077959 0.2233361 63
-5.5216446 -0.56828403 0.24966621 3628
-1.9880888 -0.68269545 0.38898969 1121
-2.0199444 -0.50582308 0.36518204 2022.6666
-1.9848673 -0.61143768 0.37886065 1416
-1.8767564 -0.43274164 0.35050982 1056
0.30263495 -2.4536963 0.69492519 1084
0.32692385 -2.4685369 0.69649649 740
0.45056248 -2.4803216 0.69312727 221
-0.37320352 0.062915765 0.34030938 97
0.5199964 -2.3809009 0.67210853 764
0.55218267 -2.3891013 0.67215681 1057
-0.18433928 0.093466297 0.32581717 629
-0.19980931 0.07033246 0.32967961 444
-0.074474573 0.10521636 0.318187 279
0.80434608 -2.2719142 0.7292794 48
1.1206484 -2.0274072 0.66117126 680
1.0939572 -1.3180918 0.53238523 1427.3334
1.1272151 -1.1132991 0.56547743 3579
1.1326396 -1.1351266 0.53353858 4244.5
1.166384 -1.1133013 0.49195445 2969
1.1876142 -1.1316811 0.56261593 3188
1.3435507 -1.1032077 0.54193527 2843
1.4477985 -1.0626025 0.58720994 3379
3.8301187 -7.8532262 1.6040957 199.66667
1.5177011 -1.0701921 0.54910362 4062.25
1.5505738 -1.0965567 0.5443809 4399
1.6939137 -1.6402733 0.61178213 1714.5
3.9465265 -7.8198333 1.6003299 218.5
1.7969178 -1.6223155 0.59910238 1422
4.0389242 -7.792202 1.5971962 223.5
4.1298771 -7.7418771 1.5897152 205
4.2455063 -7.7471075 1.5936286 218
2.1615677 -1.3621672 0.56328112 4972.3999
2.1874065 -1.4101371 0.5711512 3546
2.2082 -1.3343276 0.60026109 2268.8333
2.2346601 -1.3731507 0.60600317 1975.5
3.3793817 -4.3728228 1.1295058 281
2.3113699 -1.3450966 0.58952761 1279
2.2642736 -0.72091949 0.46346283 2662
2.2368908 -0.74260491 0.47155225 876
2.2996676 -0.88901502 0.53110468 3396.2354
2.3216565 -0.92359078 0.51444179 2575.5
2.441138 -1.1672715 0.57155603 1445
2.435657 -1.1995611 0.58037108 1527.6666
2.2832541 -0.70157516 0.45709002 3688
2.4407713 -0.86193317 0.53849882 1261
2.438561 -0.96366382 0.55448288 2935.6001
2.4703205 -0.99840796 0.5551855 3077
2.485631 -1.2101896 0.57553202 1387
2.84407 -1.984408 0.70898724 70
2.8730769 -2.2781222 0.73945141 161
2.8914347 -2.3018007 0.74525464 542
2.526608 -0.92325234 0.54826611 2650.3333
2.5401492 -1.009693 0.55060023 2710.5557
2.6234069 -1.0831169 0.55868578 1595.5555
2.6418304 -1.1232888 0.56614637 1541
2.6732748 -1.2151493 0.54957616 966
2.841392 -1.7435415 0.64978921 2516.5
2.8913841 -1.9445997 0.69395268 860
2.9326673 -1.9797994 0.70168269 1555.75
3.0242381 -2.3952804 0.76649356 2430.6667
3.0931027 -2.4615254 0.78328955 2081.8
2.6147428 -1.003489 0.55727983 3514
2.6716175 -1.0111818 0.56563717 1506
2.6727533 -1.1140289 0.55844498 434
2.9057221 -1.7189693 0.65249318 2152.0557
2.9611464 -1.7886167 0.6861577 73
3.0048094 -1.9614629 0.69171107 3291
3.1831191 -2.4340925 0.77306235 2032.8334
2.6987457 -0.88133103 0.49446315 1836
2.7107978 -0.92050081 0.50185072 2047.1428
2.7612543 -1.0105474 0.55364382 1584
2.833919 -1.093886 0.52636135 1467
2.9078007 -1.4172082 0.6127215 1216.3334
2.9411132 -1.4856322 0.62514931 1903.3572
2.9603324 -1.5629708 0.62824064 3040
2.9818273 -1.7172927 0.66176754 1474
3.0624948 -1.7698131 0.67213452 1184.75
3.0657423 -1.9414479 0.68213832 3581.6667
2.8449535 -0.97115505 0.55502671 1428.2858
2.9440746 -1.0997474 0.57072198 1776.25
2.9255061 -1.169003 0.56536508 1704.1666
3.0208199 -1.4945482 0.62440455 970
3.0375113 -1.5505154 0.64132899 1552.4
3.1193137 -1.6038089 0.65140533 1119.6
3.1244655 -1.7932572 0.67531419 1357.6
3.2168756 -1.8951634 0.66039664 3084
2.7930906 -0.39641184 0.4420799 2824.7144
2.9680047 -0.88392842 0.57666528 417
2.932487 -0.93846691 0.54985332 1250.3334
2.9579225 -1.0885813 0.5644663 1656.5
2.9749129 -1.1259809 0.57359743 1653
3.0860362 -1.2186904 0.55663675 2378
3.1643872 -1.6084952 0.64901525 1345.6666
3.2792759 -1.8898877 0.66662633 765.25
3.3387361 -1.9173949 0.70522165 1023
4.1727381 -4.3383899 1.1378846 125.25
2.8299246 -0.38895702 0.46305954 3032.9546
2.8890257 -0.45842332 0.46686339 3187
2.8891163 -0.51912892 0.48709911 2604.3479
3.0221131 -0.86587429 0.55534798 617.5
3.0434258 -0.92249656 0.53173757 1285.5
3.0668333 -0.97978091 0.53342247 1555.5
3.1546078 -1.1379358 0.55547589 3730.3333
3.1593006 -1.1996331 0.58268088 3389.4783
3.2014575 -1.2972634 0.58568418 3898.1738
3.2488625 -1.3669624 0.59891987 2834.8889
3.2522457 -1.5085691 0.60689849 1286.75
3.3342235 -1.5982471 0.63273048 1068
3.3309493 -1.6841162 0.6584233 1136.2858
3.335438 -1.74824 0.66227603 1528.5
3.3459802 -1.8706491 0.68912923 1391.8
3.4436133 -1.9471737 0.7120173 2299.1667
3.4586892 -2.0387654 0.70795095 3736.4443
3.5087557 -2.0985646 0.73374963 3220.625
4.2940111 -4.2950196 1.1313124 125.5
4.2478046 -4.3327322 1.1389207 141.5
3.1486244 -0.81173384 0.51287377 1340
3.1599398 -0.88485378 0.51902699 2540.0322
3.1508856 -0.97319531 0.53770441 3782.7778
3.2528653 -1.0902328 0.57089651 3059.8333
3.2569528 -1.1699172 0.57499993 1863.25
3.3046353 -1.237982 0.59554458 2463.25
3.314785 -1.3382779 0.59832764 2585.2144
3.3328414 -1.4504621 0.61558098 3534.2942
3.3927393 -1.5214854 0.63678604 2199.0833
3.449369 -1.6405649 0.65064466 1896.375
3.4290271 -1.6975602 0.663239 2284.2
3.4550738 -1.8434826 0.67611122 2688
3.4959488 -1.9999949 0.72891748 2651.5
3.5418487 -2.1054649 0.76463008 1407
4.3418908 -4.2770333 1.1286225 137
4.3931932 -4.285902 1.1326451 134.5
3.179019 -0.80317688 0.50472075 2049.6667
3.1987278 -0.88203436 0.53273869 2724
3.2390878 -0.93692994 0.53612846 2124.2856
3.2811286 -1.0482142 0.56990188 2540.054
3.3172219 -1.1384693 0.58704627 2586.8262
3.3614783 -1.2276629 0.60582811 2308.2632
3.3834414 -1.3218682 0.62183475 2658.3928
3.4244785 -1.4070909 0.63197702 2314.8799
3.4643023 -1.5153956 0.65239912 2090.5881
3.4872069 -1.6082191 0.67793977 2170.3333
3.5278554 -1.6558084 0.66019005 3636.8889
4.4487906 -4.2380219 1.1231257 127
4.4674702 -4.2510357 1.1270208 132.33333
3.4097376 -1.1171166 0.59516495 1121
3.4679008 -1.1983899 0.61788124 1274
3.4977586 -1.2926282 0.62445426 1381.8235
3.5309925 -1.3836547 0.64693213 1653.375
3.555644 -1.441756 0.65380096 1761.3636
3.5932713 -1.5461611 0.66186756 2040.7142
3.6159773 -1.6383311 0.65562975 2956
4.5592842 -4.2257218 1.1245826 134.25
3.5512793 -1.1798249 0.6046893 818.59998
3.5753765 -1.2523258 0.61810958 1137.6111
3.614686 -1.3381109 0.63147908 1400.0909
3.6437216 -1.4392947 0.64887744 1803.1818
3.6868238 -1.5486832 0.66563833 2206.0908
3.714643 -1.5860069 0.64830989 4314.1816
4.6533437 -4.193028 1.1206974 167
3.6521297 -1.1339811 0.57375854 885
3.6886783 -1.2155418 0.59515488 1495.5333
3.7223673 -1.3120705 0.61234206 1991
3.7578294 -1.4058312 0.6292851 2260.0715
3.7901649 -1.490334 0.64556628 2360.8181
3.8009627 -1.5590512 0.64434701 2979.7
4.749723 -4.173275 1.1202952 166.5
4.8420401 -4.1373091 1.1160482 246.5
4.9421387 -4.1302109 1.119378 269.75
5.0420284 -4.1191659 1.1220047 472.75
5.1471291 -4.0824099 1.1190511 476
4.8039122 -2.7275271 0.87667239 473
4.8005657 -2.8008051 0.88472331 273
4.8147516 -2.9169757 0.89347363 100
5.218236 -4.0608082 1.1180145 204
4.8395982 -2.6091802 0.84718704 714.5
4.8176575 -2.6769507 0.863873 601.25
4.9066033 -2.500129 0.82327735 875.875
4.8710194 -2.5482078 0.83325028 818.16669
4.964747 -2.4384937 0.82213223 1041.3334
5.0584507 -2.3719687 0.83358371 1281.6666
5.1583242 -2.3268278 0.77013898 817
5.1501441 -2.3339534 0.80709565 1112.4166
4.6832199 -0.70292252 0.52429152 229
4.7258244 -0.73618478 0.52306765 361
4.9361267 -1.3116447 0.65482324 415
4.9630203 -1.3886572 0.67698109 375.41666
4.9916754 -1.4937822 0.69204175 309.46155
5.0114431 -1.5851977 0.70202351 288.72726
5.0438294 -1.6803297 0.71649671 284.5
5.0737629 -1.7748954 0.74809694 282.375
5.1035538 -1.8757404 0.7272023 292.57144
5.1365728 -1.9716796 0.76106846 296
5.1629825 -2.0588765 0.78838444 337.33334
5.1753435 -2.1288049 0.79942763 328.66666
5.1968188 -2.2486501 0.81490898 359.33334
5.2056355 -2.3147099 0.8026011 1113
4.7565012 -0.75413758 0.57134575 382.16666
4.7982526 -0.82366031 0.58481556 408.71429
4.8329473 -0.91838092 0.59757519 433.21213
4.8575678 -1.0097607 0.61386466 426.81482
4.8820806 -1.1071427 0.62753379 398.91306
4.9123383 -1.2023058 0.65048993 376.83334
4.9288626 -1.2670174 0.64456344 346.20001
5.8019958 -0.56539989 0.58318537 62
5.7498503 0.20138586 0.42734736 216
5.7867227 0.21942204 0.48167419 197
5.8737669 0.10404931 0.48450959 110.5
6.3555794 1.3209728 0.29481423 132
-4.2645836 -0.9563098 0.49907655 310
-4.1128044 -0.89657837 0.48584497 3277
-3.9795377 -0.83986998 0.47363818 2198
0.63583398 -1.4526303 0.6750567 2674.5
1.1117148 -1.0975418 0.63557231 4174.5
1.1651878 -1.1095746 0.63106817 3186
1.3332496 -1.0665251 0.63472563 2844
1.5210705 -1.0402015 0.63458008 4174.25
1.5746315 -1.039116 0.68545699 2457
1.5863144 -1.0590382 0.62857604 3195
3.4044225 -6.0434895 1.3911932 129.33333
3.4960463 -6.0074558 1.3849217 190.5
2.2945337 -0.88105583 0.63061607 2834.8181
2.3368969 -0.93518567 0.64252973 3117.9333
2.3940916 -0.96249938 0.64171809 2902.6001
2.4466219 -0.98628914 0.65171677 2816.3684
2.5418491 -1.0098737 0.65383393 2509.8462
2.5877895 -1.0227343 0.68169928 2772.3333
2.6170695 -1.0066595 0.61066633 3816
2.6133966 -1.0190649 0.65911961 3542
4.5141563 -6.0715699 1.4243033 177
4.03228 -4.3496394 1.2400738 213
4.1566296 -4.3260608 1.2375796 121
4.2061038 -4.3160372 1.2365453 130
4.769321 -5.9597497 1.4085768 242.5
4.2897711 -4.2758689 1.2287469 119
4.243114 -4.3090391 1.2359664 115
4.8577251 -5.9491463 1.4094688 208
3.4015932 -1.4940097 0.72018099 140
4.326828 -4.271986 1.2291082 137
4.3755774 -4.2617445 1.2282825 139.66667
3.5016689 -1.6065226 0.73008382 278
4.4605265 -4.2434273 1.2269021 132.75
4.5391645 -4.1901927 1.2161062 126
4.5613627 -4.2203789 1.2252266 156
4.6527028 -4.1942129 1.2225894 146
4.7413816 -4.1396227 1.2125331 171
4.8385878 -4.124434 1.2137392 206.25
4.9386597 -4.1172519 1.2175471 212.75
5.0318937 -4.0854468 1.2147483 246
5.1372514 -4.0510325 1.2123615 313.66666
4.7989273 -2.7085586 0.9705919 456.5
4.7987423 -2.8060207 0.97773015 208.66667
5.2057562 -4.0591421 1.2190121 114
4.8363543 -2.5843825 0.96301401 673.42859
4.8092651 -2.6500771 0.95344114 638
4.9064574 -2.4729698 0.93945372 875.59998
4.8667326 -2.529218 0.9530884 793.83331
4.9731555 -2.4078462 0.92651069 1050.2858
5.0555668 -2.3583612 0.92086542 1154.75
5.1263571 -2.3213291 0.88781202 1173.6666
5.1480012 -2.3159289 0.9277916 1029.2727
4.933445 -1.2951952 0.75900996 325.91666
4.9615288 -1.378327 0.77381504 316.61539
4.9840002 -1.4679356 0.7885685 266.42856
5.0128584 -1.5756949 0.80901241 257
5.0376105 -1.6639494 0.8203305 241.44444
5.0719571 -1.7670814 0.8390944 256.14285
5.0975542 -1.8592327 0.8374182 278.71429
5.1389084 -1.9636301 0.86603248 291
5.1501608 -2.0311408 0.88925147 305.5
5.1745629 -2.1275704 0.87558222 368
5.1917992 -2.2324018 0.89986873 347.5
5.199934 -2.2947378 0.91978657 1005.5
4.7986403 -0.81853324 0.64968824 313.875
4.8301077 -0.9038654 0.67580116 324.47369
4.8540316 -0.99660277 0.69973314 321.60001
4.881566 -1.0921072 0.72486973 314.64001
4.9085798 -1.1838685 0.74916291 292.77777
4.9259892 -1.2522414 0.74207556 294.28571
5.8261185 -0.56135643 0.63699472 92
5.8080845 0.23297012 0.53465414 135
5.9012432 0.11820908 0.59110248 120
-1.4801257 -0.45604241 0.60355729 1443
-1.3484247 -0.422162 0.58815926 1869
0.34716082 -1.1221018 0.7365005 2194
0.61831307 -1.4232085 0.75723004 3078.5
0.6568377 -1.4430481 0.75627553 1321
1.1225452 -1.0607284 0.72115076 4189
1.1604831 -1.0522934 0.72512257 2335
1.279495 -0.98427117 0.72579801 2038
1.3356595 -1.0274025 0.72433305 3058
1.3753874 -0.94355977 0.76402259 3535.6667
1.3838947 -1.0180877 0.74557102 3164.5
3.8259921 -7.8236175 1.7879491 205
1.5244169 -1.0111063 0.71838057 4295.6665
3.9422946 -7.7879453 1.7828581 232.5
1.5716023 -1.0162057 0.74003136 2945
3.4001751 -6.0256085 1.5319362 215
4.0344563 -7.7526298 1.7773914 236.5
3.4914229 -5.9958043 1.5261048 272
4.1268878 -7.7469645 1.7784917 253
4.2406254 -7.7072473 1.7728248 270
4.2866621 -7.7054987 1.7736969 260
2.2283909 -0.88545644 0.71224201 408
2.2633696 -0.88735008 0.72452664 3212
2.3230958 -0.93428266 0.73938942 3045.7144
2.3802719 -0.97438598 0.77589238 2774.5
2.447268 -0.99643648 0.75464511 2606
2.5161471 -1.0109112 0.73921251 2431.2
2.5794621 -1.0283465 0.75219309 2616.1428
2.6241133 -1.0313654 0.75759327 3374
4.1649895 -4.305037 1.3362436 80.75
4.226449 -4.2904339 1.3341691 115
4.2755065 -4.2798109 1.3329468 94
4.361094 -4.2608719 1.3309183 101.5
4.4643807 -4.1979151 1.3170434 90.333336
4.4204249 -4.2367139 1.3264158 108
4.5127783 -4.1889548 1.3167442 92
4.565774 -4.2050719 1.3241565 120.33334
4.6495705 -4.1831584 1.3221712 120.25
4.7227831 -4.1159616 1.3066181 123
4.755466 -4.1472297 1.317662 159
4.8396869 -4.1288786 1.3174049 192
4.9315834 -4.0920324 1.3125684 168.75
5.0199242 -4.0596089 1.3091477 202.33333
5.0176458 -3.7052746 1.2067403 3956
5.02882 -3.7837162 1.2301571 2424.6667
4.8012419 -2.699199 1.0781785 389.33334
4.7987676 -2.7678671 1.0736214 252.25
4.8254571 -2.9318497 1.1143985 107
5.0902205 -3.740833 1.2223856 2371
5.164381 -3.8404288 1.2566142 141
4.8368225 -2.5675266 1.0573027 592.40002
4.8143992 -2.6433086 1.0426723 533.59998
4.9075575 -2.4519782 1.0427876 762.57141
4.867115 -2.5051386 1.038747 687
4.9704285 -2.3924396 1.0432371 874.28571
5.0530643 -2.3354497 1.0371734 969.0769
5.1414614 -2.296941 1.0324044 886.46155
4.9245324 -1.266986 0.83975673 240
4.9248924 -1.3914715 0.87481892 2020.5555
4.9754672 -1.4645927 0.87185669 433.625
5.0097136 -1.5602692 0.89347327 223.11111
5.0356832 -1.6489165 0.92056859 226.66667
5.0629377 -1.7382481 0.9321636 229.71428
5.095264 -1.8335145 0.95407104 241.16667
5.1273265 -1.928167 0.95973754 265.33334
5.149868 -2.0252116 0.97973418 259.5
5.1731029 -2.1144061 0.98646951 330.66666
5.1890039 -2.2237794 1.0215263 394.71429
5.1955252 -2.2798824 1.0063965 1057
4.8890495 -1.1123091 0.7859298 235.5
4.9082127 -1.1781896 0.8132869 236.75
4.9192538 -1.227967 0.82276702 225
4.9761839 -1.3620903 0.90008342 706
5.6971564 0.35055751 0.64656347 233.5
5.7635813 0.24004033 0.6717397 129
5.7790799 0.23782581 0.62661093 154
-3.6951616 -2.086611 0.83844686 4229
-3.6783044 -2.1552012 0.84828222 4352
-4.1353502 -0.55522227 0.6356771 3693
-3.7788727 -1.7431628 0.78992116 3028
-3.7744372 -1.814283 0.80057192 3910
-3.7468412 -1.9049984 0.81303167 3805
-3.7205851 -1.9957772 0.82566631 4097
-3.651212 -2.1970448 0.85340393 2917
-4.1558723 -0.4828071 0.62668473 2079
-4.0961971 -0.65085304 0.64695442 4241
-4.0593758 -0.74573821 0.65835118 4463.5
-4.0340338 -0.81654805 0.66703439 3315
-1.9781821 -0.50022596 0.65001267 3599
-1.961097 -0.55274999 0.65609449 3543.5
-1.9448235 -0.64035177 0.66733706 2114
0.50066495 -1.4380592 0.86270368 1616.6666
1.1087282 -1.0060941 0.82924557 956
1.1633613 -1.0105715 0.81929862 2405
1.2727461 -0.91809064 0.77941525 484
1.258513 -1.0043644 0.79922211 2746
1.3139493 -0.9001838 0.83237624 976
1.3815253 -0.94088626 0.82555616 3637.8333
1.5083776 -0.98715031 0.80706871 3887.75
1.6688323 -1.5279384 0.90333641 1453
3.3047373 -6.0132003 1.6749167 338.5
3.3957634 -5.9955516 1.6712594 357.66666
3.4865174 -5.9720984 1.6662006 371
4.1211743 -7.7140822 1.9588523 323
3.0993867 -4.5757174 1.3996449 51
3.125881 -4.5809855 1.4011185 72
4.2125301 -7.6898665 1.9554574 270
3.1580582 -4.5519857 1.3925287 71
3.2121043 -4.5530572 1.3928283 69.666664
4.3029823 -7.6592278 1.9505908 255
3.2954202 -4.5355735 1.3878363 80
3.3491287 -4.5344276 1.3877214 41
2.236711 -0.88448691 0.81589437 2328.75
2.2484806 -0.89950895 0.83730686 3226
3.4865103 -4.4872217 1.3748356 75.333336
2.288877 -0.92790115 0.82066202 3002.9092
2.367475 -0.97390568 0.81994534 2604.25
3.5661643 -4.4728875 1.3715116 84.666664
2.4158065 -0.99581671 0.81115794 2486.75
4.1370478 -4.2831178 1.4321806 67
4.1879878 -4.2927423 1.4372025 82
4.2575469 -4.235744 1.4216756 76
4.2608142 -4.2672896 1.4319893 89.5
4.3194804 -4.2324715 1.4233201 85
4.3696809 -4.2342634 1.4262196 89.666664
4.4540968 -4.2121329 1.4232783 88
4.5455346 -4.1846261 1.4193435 82.333336
4.6427069 -4.1471672 1.4129781 93.25
4.7398739 -4.1309323 1.4138473 102.5
4.8374209 -4.1155715 1.4154612 136
4.9326172 -4.0895014 1.413963 122.25
5.0215578 -4.0445971 1.4065181 173
5.0008364 -3.7896802 1.3248334 1771
5.0266275 -3.7941766 1.3283192 1897
