# .PCD v0.7 - Point Cloud Data file format
VERSION 0.7
FIELDS x y z intensity
SIZE 4 4 4 4
TYPE F F F F
COUNT 1 1 1 1
WIDTH 1235
HEIGHT 1
VIEWPOINT 0 0 0 1 0 0 0
POINTS 1235
DATA ascii
2.1640382 -2.0077028 0.10999772 969.5
2.0807254 -1.9904602 0.11239599 2065.4443
2.0185454 -1.9742097 0.12520818 2869.3
1.9097915 -1.9847934 0.12985831 2455.1667
1.8324418 -2.0107856 0.11666827 994
1.4121768 -2.0044315 0.13637742 1226.25
4.3636665 -1.884849 0.098180793 326
4.2983265 -1.9150949 0.10012314 690.72729
4.2169628 -1.9562653 0.10085423 797.14288
3.9761448 -1.8958304 0.10201403 752.14288
3.8964362 -1.9198755 0.10279506 746.18182
3.7976046 -1.9363452 0.10563694 672.18182
3.702538 -1.9647224 0.1032528 565.27271
3.599508 -1.976266 0.10392397 776.5
3.4953926 -2.0103626 0.096416429 860.88892
3.3980029 -1.9944118 0.10082935 870.63635
3.2986803 -1.9940339 0.09914051 921.54547
3.197691 -1.9674282 0.10277379 907.58331
3.1325822 -1.9501923 0.10418124 915
3.0020351 -2.0403895 0.10972148 848.90002
2.8987756 -2.0153828 0.10768545 906.33331
2.8237391 -1.9815985 0.1088766 983.79999
2.7221119 -2.0419497 0.12544639 1566
2.2860389 -2.0622952 0.11661504 692.5
2.0932207 -2.0290775 0.12706435 2950.3999
2.0442426 -2.1203897 0.12844603 1988
1.8675005 -2.050961 0.16891864 1065
1.0094497 -2.1527584 0.12856981 375.33334
0.92772317 -2.1314373 0.12149743 101
4.3723774 -2.0419376 0.10814159 142
4.1701345 -1.9864688 0.099254772 798.25
4.1028852 -2.009552 0.10073501 774.20001
4.0087695 -2.0449526 0.10090774 738.79999
3.9105396 -2.0502217 0.10710213 388.22223
3.8086345 -2.0896592 0.1037215 147.33333
3.7309155 -2.0809371 0.10967212 132.75
3.5128059 -2.0210595 0.093368016 861
3.091763 -2.0832298 0.10485232 866.5
2.7969074 -2.1475511 0.10993769 736.875
2.7305675 -2.1133702 0.11131936 739
2.3941779 -2.1832311 0.10844213 785.5
2.3145018 -2.1345553 0.10786216 829.77777
2.0124383 -2.1987102 0.11397047 1294.6666
1.5875075 -2.231174 0.1182934 316
1.0716352 -2.195761 0.13178873 410.5
4.3669338 -2.0643895 0.10439312 235
4.3249869 -2.093426 0.10308795 450
4.2365284 -2.1510329 0.1002193 664.79999
4.0326438 -2.1804836 0.11065048 115
3.8029511 -2.1145339 0.097998805 204
3.6907618 -2.1339519 0.098078892 229.33333
3.6099598 -2.1351719 0.10008411 675.5
3.5407267 -2.2041464 0.08404649 895.59998
3.3964558 -2.1883223 0.088266812 925
3.2729495 -2.1972246 0.083842114 1020.6667
3.2095737 -2.2026763 0.080450259 1087.7778
3.1356812 -2.2083907 0.076040544 1150.8
3.0064776 -2.2301419 0.10678675 710.5
2.9098911 -2.1966503 0.10800499 745.22223
2.8492322 -2.1755681 0.10817733 748
2.506922 -2.2044191 0.11635802 729.14288
2.4281466 -2.2078693 0.10776129 805
2.1262965 -2.3073246 0.11107782 679.66669
2.0229192 -2.2282188 0.11106844 277
1.5993848 -2.2728505 0.11510926 272.5
4.1885824 -2.1803586 0.098481148 631.79999
4.1104717 -2.1973672 0.10129036 484.66666
4.0086689 -2.2308056 0.10144047 135.39999
3.923002 -2.2682562 0.098501101 351.11111
3.8196623 -2.2674687 0.10373561 577
3.7221639 -2.2925968 0.10174926 383.57144
3.6332316 -2.3009379 0.10221303 461
3.4904251 -2.23294 0.077220358 975.59998
3.4338493 -2.2338216 0.077012919 1003.6
3.3267798 -2.2531924 0.070941806 1144.125
3.2227945 -2.3272483 0.094373494 788
3.0804176 -2.3030567 0.094408683 815
3.0457373 -2.2792003 0.098021939 803.20001
2.7800534 -2.3598795 0.11044443 731.5
2.7217469 -2.3293188 0.11199123 708.44446
2.6436334 -2.300884 0.11115005 760
2.2023826 -2.3716969 0.10932191 731.71429
2.1428947 -2.3227038 0.11055734 744.66669
1.8764856 -2.3389161 0.13679892 964
1.8211644 -2.4279478 0.1206724 710
0.45359159 -2.5034556 0.13031894 193
4.119359 -2.3772075 0.11103755 81
3.7149112 -2.3297219 0.093666911 194.66667
3.6025665 -2.3395662 0.094029173 595.79999
3.5372505 -2.3841009 0.084764026 760.16669
3.2160487 -2.3888605 0.080211215 988.5
3.0909512 -2.4083729 0.071303606 1017
2.8865604 -2.3986375 0.10978854 732
2.8335438 -2.4020171 0.10584292 758.28571
2.3989992 -2.4916153 0.10882702 642
2.3187909 -2.454484 0.1076086 550.5
2.2513552 -2.4411876 0.10352641 679.75
1.9889028 -2.5069678 0.12691787 2936
1.9724454 -2.4787734 0.12895396 1158
1.8196723 -2.4536712 0.11744273 653
0.51865005 -2.5776987 0.13119067 139
4.109735 -2.4033744 0.10665936 133
3.8283012 -2.4941134 0.10226396 445.25
3.4956534 -2.4742749 0.064557299 1148
3.4358437 -2.4761672 0.064050227 1121.625
3.3701043 -2.4676063 0.065528579 1045
3.2110493 -2.495734 0.11863251 639.57141
3.1420937 -2.5181565 0.098033994 829.59998
3.0404382 -2.5179939 0.093940571 810.75
2.9667878 -2.5055969 0.093070328 883.5
2.5482328 -2.5563364 0.11003773 702.57141
2.3701906 -2.5026975 0.10462807 691.5
2.0137465 -2.5771062 0.12021811 2882.8
1.7666655 -2.5430949 0.10147107 125
1.3174973 -2.6201727 0.1193149 357
3.8999817 -2.5008519 0.098315224 508.66666
3.8449495 -2.5024135 0.10001142 429.66666
3.7342868 -2.5316377 0.09749072 363.75
3.6227455 -2.5430882 0.097272262 554.33331
3.5372965 -2.5761368 0.09137959 771.125
3.45578 -2.5849521 0.089726701 863.20001
3.3538668 -2.6103141 0.08385548 971.33331
3.2223623 -2.5744326 0.08871121 864
3.123275 -2.5532565 0.090069048 891.5
2.7237732 -2.6510737 0.10574163 744
2.6372476 -2.6085126 0.10753831 714.5
2.038136 -2.6806729 0.10892645 1760
3.7119048 -2.6379626 0.076705031 86
3.6850646 -2.6347048 0.0778782 97
3.5109363 -2.687443 0.12253182 1362
3.4554911 -2.6855211 0.10158743 808.40002
3.3425684 -2.647676 0.076095939 1086.2
3.2525232 -2.6795936 0.077261046 1218.1666
2.9501433 -2.7218702 0.11184575 644.875
2.8064358 -2.6859708 0.10442225 737
2.7687984 -2.7168169 0.097136572 825
2.2383189 -2.8044457 0.10809369 705
2.145206 -2.7940335 0.10252489 783
2.0351803 -2.7748852 0.12882623 252.5
-0.41318822 -2.9675107 0.13966465 124
3.8098404 -2.7786357 0.10284877 166
3.5291877 -2.778219 0.1064072 380
3.3623281 -2.821265 0.098071262 736
3.2663708 -2.8203967 0.09685564 799.20001
3.131253 -2.7978563 0.097855091 708
3.0598907 -2.8026929 0.094831131 835.5
2.9911222 -2.8233211 0.088861674 858
2.162657 -2.8576486 0.1364471 1191.625
2.0358672 -2.8938756 0.14833781 1485
1.9891204 -2.8822079 0.14649445 668
3.7697785 -2.8318508 0.094329759 288.60001
3.6623535 -2.849674 0.092832044 600.71429
3.5766082 -2.8568637 0.092284285 693.20001
3.4403121 -2.8611307 0.0915685 773
3.3617389 -2.8624079 0.090727247 837.66669
3.2544398 -2.8520103 0.091079369 873
2.8719435 -2.896467 0.091222003 1000.3333
2.3200994 -2.9685354 0.090961657 705
2.1784878 -2.9196987 0.15455662 680
2.041502 -2.9266937 0.14504136 2266
3.0477266 -3.0324419 0.11585759 926.33331
2.6755679 -3.0645425 0.097146168 637.25
2.5399132 -3.0106094 0.098152727 594.75
2.45555 -3.0276022 0.090941139 669.40002
2.3587694 -3.0247843 0.085481763 742.16669
3.0037708 -3.1124766 0.10250054 639
2.8995907 -3.1433258 0.094531678 646
2.799134 -3.1416662 0.091055065 1011.6667
2.7070937 -3.1673949 0.083381057 796.5
-0.49508119 -3.3348386 0.11671512 216
4.9524369 -3.0635021 0.065685987 146.33333
4.9294758 -3.1080613 0.061334956 175
3.1046805 -3.2218149 0.088548742 798
2.9539878 -3.2145078 0.085584641 704
2.9133687 -3.2508163 0.078810997 772
2.7614269 -3.1907063 0.116101 1515.5
2.1878216 -3.2638807 0.11503887 1960
3.7808805 -3.2401569 0.089204684 457.16666
3.6795161 -3.2390101 0.090394899 527.66669
3.5965323 -3.2518449 0.088880695 588.5
2.3548298 -3.3959043 0.10792233 1086
2.1736078 -3.3421714 0.10502581 1652
5.0603266 -3.2744224 0.10989004 243
5.0182695 -3.2802916 0.11150037 1722.5
3.0607362 -3.4515367 0.052592166 981
3.0339971 -3.446713 0.052665018 940.5
2.9436057 -3.3831077 0.059802078 894
2.368494 -3.4414437 0.10306087 766.5
2.3144448 -3.4231703 0.10267429 1320
2.1827016 -3.4678049 0.090615377 870.79999
5.2061906 -3.3957109 0.088416584 81
4.9964809 -3.3823402 0.1011541 2292.6001
4.9130092 -3.4169984 0.1013504 3882.25
2.3794374 -3.5267015 0.093217961 353
2.2341549 -3.5240231 0.086569086 765
5.1794338 -3.4117167 0.088150367 86
4.882206 -3.4900446 0.094403207 2169.5
2.4200368 -3.6236711 0.083179295 472
2.2166295 -3.6529646 0.15203771 2332.3999
-1.450217 -3.9315236 0.17158043 519
4.8922963 -3.5801809 0.083506212 1398
2.7621894 -3.7411764 0.081176981 375
2.6023188 -3.7584817 0.073719032 507
2.5230951 -3.7383437 0.07325501 660.83331
2.4267282 -3.7151163 0.072247393 567.66669
2.3634946 -3.8001473 0.14319748 234
4.9057932 -3.6815453 0.071114369 740.5
2.7117269 -3.8600099 0.064673953 494
2.5266993 -3.8423226 0.14444625 1668.3334
2.3890171 -3.8248312 0.14164832 261
4.8885889 -3.7465057 0.06427294 449.5
4.8430963 -3.7781737 0.062458642 127.66666
3.9164157 -3.8519979 0.07802847 171
3.8300731 -3.8279855 0.081897087 216.39999
3.7572403 -3.8201888 0.083405316 232.5
3.5148056 -3.8650072 0.077974908 218.5
3.4633794 -3.8568804 0.078817129 231
2.1675587 -3.9709115 0.11907144 1807
4.8377151 -3.8764379 0.05106822 95
3.9689322 -3.9167044 0.069224246 56
2.5407968 -4.0039806 0.12863433 360
2.3496799 -4.0675621 0.11617203 789
5.2007117 -3.9452767 0.12138756 1005
5.1504402 -3.977083 0.12024339 1237.5
2.3613896 -4.1918263 0.10417257 2671.3333
2.1046462 -4.2166686 0.092559502 1527
5.1315665 -4.0559182 0.11353395 963.33331
5.0670595 -4.050528 0.11624469 158
2.6081142 -4.2681684 0.10384127 650
2.591784 -4.233068 0.10695742 2072
2.1321013 -4.2478013 0.090543054 1424.5
2.143229 -4.3685331 0.079057127 493
2.5677714 -4.5788221 0.071263015 304
2.6031044 -4.5966277 0.070359729 279
1.8037686 -4.737874 0.14116007 534
4.0967622 -4.8565722 0.056084052 55.333332
4.0046463 -4.8784089 0.054474276 51
3.9091275 -4.8738327 0.055427749 67.333336
3.3999946 -4.8364353 0.05850723 80
3.3062425 -4.8839312 0.052831806 100
3.9929464 -4.8922219 0.053142354 55
1.7233343 -5.0744586 0.11365633 141.5
2.7942059 -5.1955132 0.12978132 1244
2.6347642 -5.2757859 0.12080911 438
1.6753922 -5.3397827 0.092434116 112
3.3111784 -5.3116217 0.12694374 1123
1.6687725 -5.5509849 0.076462902 270
2.7803531 -5.539474 0.10270412 1632
2.6271431 -5.5158405 0.10200091 272
1.6250298 -5.5768666 0.073219672 311
3.4456658 -5.6165428 0.10394406 1527.5
3.1484125 -5.6219635 0.10102087 332
3.0689516 -5.6372271 0.098948658 984.5
2.8364732 -5.5953593 0.099184908 902
2.7556257 -5.6119814 0.096638858 1610
3.3987565 -5.6685224 0.099543542 639
3.1667297 -7.8935971 0.10312568 2296
3.7535036 -8.3773365 0.080818087 3649.5
3.658325 -8.4178886 0.078133836 4130
3.5856481 -8.417881 0.077725448 3814
3.4403548 -8.4237728 0.07649532 3108
3.3918815 -8.4278059 0.075946189 3606
4.3732424 -8.4845791 0.076982222 41
-3.9839094 2.2412872 0.31563002 90
-3.9421852 2.0724146 0.31640249 90
-3.9665368 2.1320522 0.31588513 84
-3.9154913 2.012522 0.31697455 67
-3.9666893 1.8791555 0.31532019 117
4.5912218 2.4635942 0.23500775 71
-3.9436781 1.7970213 0.31571096 139
-3.9458058 1.6988088 0.31537843 149.5
-3.9516256 1.6268095 0.31500757 131
-1.562032 1.2651341 0.24622694 111
-1.4817102 1.0684185 0.25136393 101
-3.8922045 0.9204284 0.31377834 409.5
-1.4554741 0.97771943 0.25311381 147.5
-1.4809363 1.0350373 0.25157091 131
-3.8932025 0.82768178 0.31328756 478
-1.4281037 0.87231576 0.25492209 151
-1.4877932 0.93847036 0.25166336 270
-3.7535422 0.59820759 0.31581926 358
-3.8787038 0.66375124 0.31280404 597
-0.54039693 0.78790343 0.29976505 162
-3.7173388 0.50308359 0.31624687 411
-3.7731597 0.5561856 0.31504723 798
-3.8393781 0.47538647 0.31277493 1878
3.069294 0.879233 0.23671816 591.40002
3.0021114 0.88058722 0.23956028 579.0769
2.9053578 0.87391245 0.24962202 634.27777
2.7973742 0.8620261 0.27448815 654.44446
2.6957712 0.85757422 0.25464284 620
2.6000552 0.85511029 0.24393797 612.67999
2.5018101 0.85146332 0.25248861 612.52942
2.4045448 0.84279299 0.2453724 598.3125
2.2988811 0.8351357 0.2426441 610.83331
2.2079148 0.82369161 0.25118741 577.09998
2.1058877 0.81481349 0.26200014 681.57141
2.0000825 0.81276429 0.25152183 525.66669
1.902236 0.80378664 0.24207667 506.91666
1.8083892 0.79712164 0.23542638 519.11108
1.7025561 0.78838611 0.26790714 507.625
1.6060588 0.78287721 0.26576221 496.10001
1.5040061 0.77842593 0.25638658 463.875
1.4097588 0.77216494 0.24767976 445.125
1.3123071 0.76733589 0.24285156 448.85715
1.2273538 0.75182128 0.26167691 567.33331
1.1051116 0.75786185 0.25057018 277.75
1.0042024 0.74733055 0.24187879 264.66666
0.9039135 0.74137115 0.26745075 239.16667
0.80179048 0.73341179 0.25945333 203.33333
0.69190526 0.72546518 0.25082153 197
0.59969831 0.71546054 0.28140169 167.5
0.49666619 0.71862042 0.27404219 168
0.40701532 0.70282495 0.26794049 113.66666
0.28305531 0.70923889 0.25895846 644
0.22155976 0.69973266 0.25469452 107.5
0.1127758 0.6953752 0.24691586 80.5
-0.001029253 0.69029081 0.23874837 90
-0.090204477 0.67397618 0.23249458 84
-0.2344954 0.68627334 0.22180137 85
-0.34693408 0.67276931 0.21374267 58
-0.89862847 0.66168618 0.28233802 100.5
-1.0140836 0.65001941 0.27653909 98
-1.0608504 0.63316238 0.27421606 104
3.1194119 0.79469383 0.27099872 256.5
-0.9245894 0.5694176 0.28127542 920
-0.96129155 0.55023074 0.27945277 810
-1.0785215 0.55000448 0.27349436 681
-1.1842377 0.54564965 0.26812071 850
-1.3125122 0.5147686 0.26161176 1083
-1.3715088 0.49724934 0.25861144 1634
-1.4538376 0.45245162 0.25441873 3052
3.1412547 0.70089591 0.23694003 188.83333
-1.4477484 0.38939592 0.25471586 3177.3333
3.6858535 0.66230178 0.19326989 338
3.1917458 0.60230577 0.23640443 232.71428
3.1636834 0.64406085 0.23462336 204.33333
-1.4342363 0.29485217 0.25532755 2641.6667
3.3831024 0.47854272 0.22291021 338.5
3.3199639 0.49363682 0.23000589 326.125
3.2457693 0.53336012 0.24726164 280.75
-1.4274652 0.20236632 0.25551951 2778
3.6480818 0.47301051 0.21820104 360
3.511754 0.43311808 0.23679967 383.77777
3.4312489 0.44877467 0.24412513 364.22058
3.3613906 0.46644393 0.2558459 346
-1.4215953 0.14094457 0.25567901 2473
-0.83204722 -0.20397624 0.28487203 234
2.3527584 -0.38374409 0.26829183 230
2.2848442 -0.37107682 0.28037298 217
2.1737461 -0.37406364 0.26464301 939.20001
2.1225128 -0.38476098 0.28008252 3633
2.6171064 -0.4598223 0.22270136 1015.5333
2.4874477 -0.46299347 0.23913068 641.75
2.4145525 -0.45244959 0.26688474 281.11111
2.2851424 -0.43419498 0.28114492 310
2.2358923 -0.45863789 0.24277604 229
2.0537989 -0.46914592 0.26835883 277.75
2.0333576 -0.48512462 0.26475525 434.75
2.6216354 -0.52930415 0.22461008 1043.3928
2.4824495 -0.54158241 0.25095204 617.55103
2.4421086 -0.51235408 0.2657032 186.75
2.273397 -0.55181015 0.27843383 360.75
2.2100787 -0.57116312 0.27571732 421.33334
2.0726595 -0.56841564 0.27086228 660.91669
2.6224241 -0.62838727 0.22160809 1028.2784
2.4959593 -0.6387887 0.25363314 419.15094
2.4253736 -0.68232799 0.28140345 838.33331
2.2684965 -0.61121637 0.27642721 495
2.2268078 -0.67629516 0.2662273 354.60001
2.1177864 -0.64704907 0.26154411 859.29999
2.0251665 -0.66784763 0.26059046 137
1.9174068 -0.69273055 0.2411115 659.5
1.8265865 -0.71743596 0.22457393 1682
1.7199328 -0.7095598 0.24744911 645
1.587657 -0.74071062 0.22681905 1205
2.6304808 -0.72852838 0.21839356 1063.7294
2.5216289 -0.73574984 0.25607464 279.74075
2.4355793 -0.748851 0.28031707 373
2.1874647 -0.75067043 0.25350097 1404.6923
2.0987737 -0.75838375 0.2487492 1591.3334
1.9835682 -0.81503797 0.21250331 1853
1.8836427 -0.78280878 0.25080419 2368.5
1.8428996 -0.75480288 0.24556099 1931
1.6656055 -0.7475971 0.195631 239
1.6032236 -0.77441883 0.23631702 1223.6666
1.4765632 -0.82022023 0.25617182 2606
1.4618118 -0.82243502 0.25427741 3930
1.2337024 -0.85059118 0.27867407 4246.5
2.6165328 -0.83484948 0.23320095 872.60437
2.5298345 -0.79828447 0.25619555 224.14285
2.1552811 -0.82881939 0.24544507 249
1.9845556 -0.84708178 0.23986305 2761
1.9213777 -0.85434878 0.25448999 2383.75
1.8317389 -0.87018716 0.21963128 965.59998
1.1222355 -0.97525728 0.23618554 382.5
2.6533906 -0.92173737 0.22774088 1377.3954
1.7927344 -0.93730903 0.20993873 69
2.6352878 -1.0156358 0.22047527 861.84998
2.5781221 -1.0568585 0.25723833 254.33333
1.1552677 -1.0920521 0.20757616 310
2.7396975 -1.1397824 0.20018563 1736.8182
2.4449904 -1.158587 0.21478188 318
2.7213314 -1.2235684 0.21274443 1599.12
2.6567254 -1.2358702 0.20216878 976
-0.593364 -1.4931502 0.28124613 1900
2.7172008 -1.3232116 0.22139981 2206.2273
2.6604874 -1.332944 0.22745286 1687
2.5456877 -1.3646965 0.21737313 3500.8635
2.4509501 -1.336129 0.20173609 2944.8696
2.3980627 -1.3211831 0.21219641 1742
-0.56547999 -1.5511541 0.2815116 1622
-0.59607911 -1.5198468 0.28058445 2683
3.0064669 -1.3797061 0.19876394 1762
2.9586096 -1.3885422 0.20004293 1701.4546
2.8567839 -1.4110496 0.21516234 2153.625
2.7477698 -1.4172561 0.21995227 3020.0833
2.6692572 -1.4063389 0.24628189 2104.2354
2.5921392 -1.3842429 0.22341977 3574.8
2.3621488 -1.4702742 0.25264552 5625
2.2481723 -1.4869074 0.24001396 2464.4546
2.1724851 -1.478942 0.2091935 1669.9166
2.1059599 -1.4751581 0.17694417 1367
2.9510007 -1.4596288 0.19241732 936
2.8496175 -1.5524864 0.18136978 1089
2.7654538 -1.5333967 0.22806413 3197.5386
2.5759194 -1.5487535 0.23626639 705
2.2868588 -1.5238197 0.2389463 2430.5
2.0824661 -1.5431712 0.20590059 862
1.4663367 -1.6518581 0.21409726 768
2.8301611 -1.6522526 0.2165603 3322
2.8010902 -1.6094579 0.20665908 3304.9443
2.45751 -1.6796995 0.20013204 522
1.4741373 -1.6632532 0.21416818 1730
2.8443241 -1.694898 0.19350162 2554.8
2.8162351 -1.6799897 0.17757565 2194
2.7082078 -1.9422524 0.22198032 3227.5
2.0781827 -1.9895715 0.22269583 3497.875
2.0011349 -1.9875646 0.20692337 3305
1.3742733 -2.0307245 0.2173482 3798.5
2.7250366 -1.9980385 0.21421224 3198.9167
2.1022921 -2.056988 0.23020385 1514
2.0283999 -2.0710526 0.18366423 2438
1.3405671 -2.5223336 0.20070781 121
3.2204154 -2.5203495 0.19784155 2047
1.3009162 -2.6112354 0.19108441 191.5
1.2229354 -2.675972 0.25604531 1715
1.1677125 -2.6636221 0.25360101 775.25
3.1895881 -2.5778651 0.18843053 1139
1.251112 -2.7006786 0.23720272 1084.5
-0.60443473 -2.8200889 0.24655885 197
3.5163238 -2.6704175 0.17781562 3835.5
3.4575672 -2.7002897 0.1731284 4045.2856
3.2239189 -2.7082477 0.21253899 2156.6001
3.1162529 -2.7426572 0.21687061 4593.6665
3.047929 -2.735194 0.21614115 3925.1428
2.9659452 -2.727509 0.18717551 1138
-0.49795318 -2.9376793 0.24767244 1215
3.6151605 -2.7447393 0.22118288 1263
3.5530989 -2.7389696 0.22205794 1550.2858
3.4042778 -2.7655206 0.16288437 3126
3.3489556 -2.7674289 0.18967813 2918.2856
3.2696009 -2.761061 0.18645373 4033.7778
3.1636491 -2.7509532 0.21681702 4499.75
3.4338543 -3.0269666 0.18492511 797
3.4108384 -2.9864085 0.18997386 3502
2.8046832 -3.1503417 0.18946883 4363.25
-0.49454904 -3.3338857 0.23435993 1403
-1.1350133 -3.4084213 0.20338714 2788
2.7586212 -3.2356403 0.21245641 1723
-1.1315587 -3.5048552 0.20032036 2582
5.0487852 -3.1825676 0.1969281 266
-1.1220591 -3.5787699 0.19824004 2578
5.1523957 -3.2927258 0.18264124 40
5.0491772 -3.2574732 0.19019747 285
5.0106211 -3.288471 0.18898398 2054.3333
2.1436915 -3.4839504 0.16528666 1318.5
-1.2093503 -3.6997902 0.1902204 817
4.9954352 -3.3411324 0.18480596 2628
4.8807635 -3.4217167 0.18170574 3669
2.1689301 -3.5790498 0.15723023 2402.5
2.1437328 -3.5606303 0.15792617 2441
5.0212183 -3.4281914 0.17583621 2042
2.8733184 -3.6271913 0.1756617 2264
2.8431206 -3.577831 0.17998531 2788
3.184866 -3.7324591 0.1705156 207
3.1044667 -3.7448022 0.16806638 3241
2.8869271 -3.7237895 0.16610046 2233
5.1271162 -3.7102253 0.23513657 2109
3.0823421 -3.766624 0.16546264 3431
3.0282779 -3.7979388 0.16130865 3551.75
2.9313443 -3.8345437 0.15569365 3526
2.6456196 -3.8441179 0.2318114 2104
2.5343382 -3.8563001 0.22826071 2922.5
5.1933088 -3.7843993 0.18239194 1004
5.1424422 -3.7700408 0.17028984 1552
4.8992333 -3.7456102 0.15063742 103
2.9126272 -3.8920176 0.23339403 338
2.5777111 -3.9008462 0.22590256 3049
2.4625459 -3.916975 0.221838 1530
5.2126107 -3.9685855 0.21471782 448
5.1909952 -3.9787011 0.21454954 307
2.3529072 -4.2226424 0.19576442 1779
2.7553744 -4.3130336 0.19783109 901
2.5940242 -4.3351707 0.19287443 1339
2.2714229 -4.3733287 0.18218088 1063
2.1977899 -4.4030523 0.17793308 2176
-3.1404188 -4.7644711 0.26131219 1688
2.6625552 -4.4219441 0.18758394 1452.75
2.6038737 -4.4055004 0.18765725 1407
2.1698487 -4.4359336 0.17466682 1943.3334
2.0925846 -4.4422669 0.1719929 1565.5
-3.1875675 -4.9400253 0.25665766 4838
-3.1769912 -5.0509038 0.2546564 4954
1.5901093 -4.814137 0.24237543 1341.3334
-3.1412566 -5.1156206 0.25417572 2187
1.6202054 -4.8912897 0.23920274 826
-3.1675837 -5.1944828 0.25192887 4817
3.2648761 -4.9244533 0.15698272 1063
2.9803476 -4.9233766 0.15382165 667.5
2.9426136 -4.8929873 0.15567571 848
3.2370086 -4.9463954 0.15499678 971
1.8028905 -5.2057424 0.2272568 1101.5
1.721293 -5.2082191 0.22534171 1060.6666
3.3324847 -5.215827 0.13464135 1060
3.2000427 -5.166347 0.13734806 840
2.8691211 -5.5691667 0.22573192 897
3.2088814 -5.6349931 0.22562841 1233
2.9238348 -5.6519561 0.22189498 1130
2.8959842 -5.6131167 0.22367448 1898
3.3332021 -5.7172375 0.22218363 896
3.2852049 -5.724781 0.2214033 813
3.3648636 -5.741569 0.221101 602
2.6686234 -5.8845701 0.20628956 309
3.5257733 -7.7279124 0.11469374 3954
4.6216292 2.5695298 0.38876587 80.5
4.5985856 2.5117805 0.3113513 72.5
-1.4456103 0.86072528 0.37894845 176
-0.7451427 0.85575151 0.39741409 118
3.0700321 0.87324643 0.3431263 644.86664
2.9991765 0.87369621 0.34153843 577.64514
2.9017148 0.8673985 0.33563775 683.78125
2.8053827 0.86124933 0.3459906 636
2.7016175 0.85284162 0.34628898 607.20001
2.6002448 0.84707332 0.34083402 582.55554
2.500015 0.84131503 0.35656071 554.5769
2.4008079 0.83461082 0.34944355 546.33331
2.306396 0.82926488 0.34591115 549.09998
2.203052 0.81651187 0.35948682 514.5
2.1038723 0.80728221 0.35370618 636.5
2.0049944 0.80659378 0.34729052 481.16666
1.9074435 0.79770458 0.34110612 457.91666
1.8094904 0.79104829 0.33459306 480.29999
1.7173874 0.78890038 0.33957618 488.14285
1.5991964 0.77897274 0.3630327 473.57144
1.5062406 0.77033722 0.366552 473.33334
1.4043491 0.76509714 0.37154347 451.625
1.3017676 0.75929964 0.3588171 445
1.2230361 0.7493968 0.34836531 456.39999
1.1048501 0.75651073 0.34760487 284.25
1.0067554 0.74450386 0.34226173 256.33334
0.91081262 0.73690331 0.37093025 237.33333
0.7992506 0.73364735 0.36567682 205.33333
0.69757843 0.72182095 0.36094266 185.33333
0.6023314 0.71400559 0.35643876 208
0.51384807 0.71091819 0.35218883 169
0.41259837 0.71106291 0.34726977 134.5
0.30208468 0.71235633 0.34186798 157.5
0.21954656 0.70020568 0.33791757 119.5
0.12137318 0.6918745 0.33314794 112
-0.025913239 0.68706858 0.3259033 108
-0.078589678 0.68169427 0.32332498 93
-0.18333459 0.69341028 0.31805503 90
-0.87953067 0.65608692 0.39328492 121.5
-1.0097477 0.6339016 0.3897444 140
-1.3305757 0.54886389 0.3808372 595
3.1116333 0.80723238 0.38486862 234
-0.90153527 0.56321073 0.39236289 1000
-1.0352919 0.56812227 0.38881326 743
-1.1264966 0.56115735 0.38634908 693
-1.210964 0.55152059 0.38405043 695
-1.4122536 0.53637111 0.37859368 807
3.1331525 0.72293746 0.3408767 188
3.185802 0.58877921 0.33774972 190.44444
3.1608813 0.63701797 0.34983307 142
-0.80805755 0.36234459 0.394014 1425
-1.4457123 0.31172821 0.37659019 1646.5
3.2920914 0.48177436 0.32799608 326.23529
3.2384589 0.52066362 0.3468737 282
3.4311934 0.41367844 0.34366322 377.26154
3.3455155 0.45010564 0.33821911 353.60001
-0.83216214 -0.20421121 0.38998789 234
2.4240377 -0.37506315 0.30805385 150.5
2.1185608 -0.3808299 0.34438139 2984.4119
2.0242124 -0.39597905 0.36459118 162
1.8465989 -0.3893232 0.38508362 71
2.4531808 -0.46846062 0.29183361 549.875
2.3854852 -0.43541923 0.29238945 295
2.3297977 -0.47202459 0.29025829 312.83334
2.0642729 -0.47243738 0.33336228 397
2.022563 -0.47886038 0.33429277 401.76471
2.4651375 -0.54170126 0.29416156 689.35297
2.3527153 -0.51104188 0.29478341 502
2.3187783 -0.53892863 0.2877084 473
2.1824973 -0.5973686 0.34956914 1596.25
2.0482266 -0.52781618 0.34994823 372.5
2.0184736 -0.56854898 0.32788265 468.39999
2.4682589 -0.62863493 0.29295313 600.84613
2.22893 -0.61128116 0.38376051 2396
2.0981998 -0.64616168 0.34097773 1639.3334
2.0170922 -0.66047692 0.3145161 562.375
1.870146 -0.70298386 0.30827019 1454
1.8507736 -0.72458065 0.30534482 2165
1.735594 -0.69850177 0.3736524 433
1.6028094 -0.73452896 0.36293513 3908.6667
1.4923465 -0.74628115 0.30692452 947.66669
2.4812975 -0.75210196 0.29480794 376.28571
2.4428377 -0.77117503 0.34253877 252.11111
2.170136 -0.7431367 0.34020275 3903.1428
2.1348815 -0.75533986 0.35063964 1036
1.9346995 -0.82545346 0.31295002 642
1.8455646 -0.76521599 0.38084495 342
1.6835897 -0.80066442 0.36786813 1622
1.5820403 -0.77064764 0.33812004 1066.3334
1.2311907 -0.85867321 0.36833125 2233.3333
2.6227198 -0.83217329 0.33438677 1262.2577
2.5269785 -0.79577756 0.33331168 290.25
2.4640198 -0.7920537 0.37919003 216
1.9752039 -0.85261226 0.32891554 3477.3333
1.9337459 -0.84614462 0.34261954 2512.3333
1.0972128 -0.98122811 0.34819341 548.5
2.674305 -0.91686749 0.29655671 1832
2.6462886 -0.92236662 0.33140278 1962.9487
2.6000402 -1.0204653 0.30224529 296.38461
2.5731912 -1.0479311 0.33698463 253.64
2.6966228 -1.2261177 0.37493467 332
2.6586862 -1.2367799 0.37044162 194
2.7605681 -1.3560942 0.33903676 112.125
2.5464706 -1.3331316 0.35120118 208
2.8200927 -1.4423888 0.36306888 222
2.7524619 -1.4069998 0.33487421 288.55554
2.6255198 -1.4464725 0.34745944 299
2.6032906 -1.4380565 0.34640592 209.5
2.3403838 -1.4814427 0.34196931 2032.6666
2.2756052 -1.4660105 0.32835037 3026
2.2000623 -1.457741 0.32878494 1988.8
2.8245974 -1.4683579 0.36054462 259
2.7922444 -1.5311937 0.33165485 303.66666
2.3197138 -1.5145891 0.34918964 2235.5
2.2967272 -1.5292957 0.30999351 2127.6667
2.7996383 -1.5997429 0.29246315 263.85715
-3.2518408 -2.1778996 0.30261511 2668
-3.2569892 -2.135833 0.30305418 2747
2.0617824 -1.9169403 0.29981279 3235
-3.2958338 -2.2325284 0.30068615 127
2.7082844 -1.9410745 0.29948801 3237
2.0743334 -1.9659046 0.3238529 2758.4443
2.0191026 -1.9745537 0.3169376 2879.75
1.3799188 -2.0390809 0.32749128 3649.5557
2.7255421 -1.9958175 0.29412639 3162.25
1.3919063 -2.0731008 0.36105108 4254
2.0546331 -2.1992483 0.27679527 2547.5
2.0400605 -2.2493954 0.27168685 574
3.614464 -2.6706128 0.30969423 1924.8334
3.5611932 -2.6683581 0.30988038 2203.6001
-0.74539256 -3.0027566 0.35390925 110
3.5222723 -2.7658989 0.29150754 1955.6666
3.2236576 -2.7718341 0.2979815 430.66666
3.6577234 -2.8237622 0.32412547 825
3.2737162 -2.8653126 0.31889534 154
2.1008697 -3.0699015 0.34267849 279
-1.2459505 -3.3399408 0.33517593 2549
2.8047161 -3.1484528 0.32167935 4252
-0.4949615 -3.333617 0.35327142 1382
-1.1384375 -3.4100575 0.33640617 2682
-1.2058527 -3.3739061 0.33548743 2903.5
5.0586014 -3.1988943 0.27248922 291
2.1389918 -3.419594 0.32628772 2445
5.0511336 -3.2612395 0.26844162 243
4.9999018 -3.2510164 0.27061602 2123
5.0059738 -3.3605599 0.26284546 2377
4.877799 -3.4164426 0.26225978 626
-1.691735 -3.871645 0.31391257 3822
2.6116862 -3.7580822 0.31888372 2368.3333
2.5590014 -3.7582593 0.31792551 2548.5
2.926136 -3.8638086 0.31813282 534
2.6826103 -3.8163791 0.31701672 1597
2.5165701 -3.7970459 0.31509924 1863
2.8969145 -3.9190445 0.31477711 255
2.4233007 -4.0540738 0.29984692 968
2.7794545 -4.3052788 0.29245326 1832
2.5863528 -4.3656106 0.28627816 1263
2.1929555 -4.4148636 0.27645379 2445
2.1130836 -4.4174118 0.27466288 1265
2.7245853 -4.4139185 0.28585032 1319
2.6627815 -4.4146442 0.28487742 1407
2.6020184 -4.4087114 0.28424174 1363
2.2680235 -4.4250035 0.27742159 1120.6666
2.1656165 -4.4459062 0.27427414 2313.6667
3.0852835 -5.1513085 0.25061738 103
1.3192949 -5.7131205 0.32865369 211
3.4599013 -5.6486368 0.22677861 2784
0.22198009 -8.0367937 0.24811698 2335
4.2573376 -7.9326777 0.29111084 44
4.6153088 4.5033078 0.45021403 282
-3.9733098 2.6294198 0.51357162 324
-3.9813349 2.552702 0.51274329 320
-3.9815943 2.4997296 0.51218891 138
-3.9684947 2.441642 0.51162225 446
-3.9725435 2.3125491 0.5102697 366
-3.9416091 2.1719463 0.50890869 285
-3.9736016 2.2352145 0.50946695 196
-3.9467938 2.0973396 0.50812691 399.5
4.5881248 2.5667577 0.47090995 96
-3.9437687 2.0201867 0.50734544 484
-3.9479048 1.9711775 0.50683302 210
4.6078153 2.5613182 0.47095615 112
-3.9496534 1.673277 0.50381154 87
-3.8737643 1.601987 0.50331187 248
-0.85296893 0.8904587 0.50477815 96
-1.440696 0.85798156 0.50276923 134
-3.8670571 0.70590878 0.49455559 1294
-0.70853066 0.81437218 0.50442165 122
-1.4471843 0.82767475 0.50244808 170
-3.8441141 0.61066258 0.49371094 1771
-3.8517935 0.65754807 0.49413598 1711
-0.5252192 0.72794378 0.50407284 76
-0.56053233 0.71244764 0.50381482 68
-3.8096187 0.51466131 0.49289554 1434.6666
3.0705862 0.86748695 0.44867206 610.53845
2.9992614 0.86568987 0.44634789 521.70587
2.8996191 0.8613404 0.44548124 634.46667
2.8033423 0.85517371 0.44340295 584.59998
2.7041383 0.8457669 0.44107556 567.29999
2.6040401 0.83870721 0.43845493 534.11108
2.5011992 0.83519053 0.45535105 502.11111
2.3990564 0.82969093 0.45283604 510
2.3005018 0.81892288 0.45032698 504.9375
2.1996579 0.8110615 0.44758767 501.21429
2.1083422 0.80543375 0.44712025 597.18182
2.0026574 0.80785978 0.44176412 458.33334
1.9099808 0.79447854 0.43910855 446.5
1.8046079 0.78575766 0.43586487 467.83334
1.6985295 0.78269112 0.42946023 499.77777
1.6140149 0.77748871 0.4414748 469.42856
1.5021272 0.76886094 0.45439607 440.60001
1.3906455 0.76484537 0.45174128 435.5
1.3067842 0.75590754 0.44973201 409.66666
1.2248473 0.75138307 0.44774103 473
1.1150258 0.75041938 0.44504052 291.5
1.012939 0.74077809 0.44251704 253.66667
0.91386509 0.7349906 0.44004333 211.33333
0.80256128 0.73171616 0.43724245 185
0.68822622 0.72054386 0.45280612 188
0.59601545 0.71602869 0.46972954 170.25
0.51119733 0.71175838 0.42981803 142
0.42738366 0.70459759 0.42765814 127.5
0.3148756 0.69561684 0.44497347 121.25
0.1857574 0.70159125 0.42140919 80
0.09491396 0.68991089 0.41902828 82
-0.1270473 0.67391634 0.41319758 75
-0.55755258 0.68486381 0.50354505 53
-0.9189961 0.65160441 0.50218582 122
-0.9837296 0.61164033 0.50160706 424.66666
-1.0602491 0.57309031 0.50101155 653
-1.1495759 0.56549513 0.5006873 721
-1.2997787 0.555722 0.50017315 785
3.1056828 0.81132352 0.45244908 608.5
2.0845139 0.7855823 0.42170089 2178
3.1413562 0.69183958 0.45043761 144.39999
-0.81543517 0.40346643 0.50003016 1856
-1.0936162 0.37829795 0.49901658 518
-1.1893942 0.368274 0.49865592 591
-1.2852147 0.35710862 0.49828482 519
-1.4155004 0.35107651 0.49786919 2397
3.1855414 0.58892977 0.44320238 182.375
3.1630931 0.63361502 0.44705069 143.39999
-0.81520581 0.37628582 0.49976605 2121
-0.82263494 0.35077026 0.49949759 1296
-1.4405019 0.32493719 0.49755001 3125
3.2851367 0.47537544 0.42668951 314
3.237479 0.51713264 0.44796222 272.61539
3.4272053 0.40369639 0.43359703 374.60001
3.3395596 0.44128367 0.43269038 348.77585
-0.86562848 -0.20264021 0.49415779 342
2.1199853 -0.38064042 0.43910354 2523.05
1.9615058 -0.40875033 0.41162771 191.5
1.8829653 -0.40210563 0.44331396 106
1.8111005 -0.38630632 0.44085056 86
2.0609984 -0.47689039 0.44149941 666.94116
2.02036 -0.47590399 0.42217261 460.64285
1.9319577 -0.43341503 0.42730868 150
2.0546851 -0.52439874 0.43308443 1150
2.0233486 -0.57379335 0.4307875 564.11768
2.1977291 -0.6571514 0.431898 1829.5
2.1036839 -0.6484679 0.42640179 1912
2.0306292 -0.64572072 0.44188052 351.16666
1.9574748 -0.70291728 0.42591196 1066
1.6737432 -0.71565568 0.45389473 925
1.642796 -0.73549092 0.45283288 3641
2.5883608 -0.77929717 0.43627191 3530
2.5090606 -0.78463793 0.43385285 949.58331
2.4334064 -0.78497028 0.43107176 92.25
2.1811094 -0.74516255 0.43685794 3760.3333
1.9255624 -0.82811666 0.38556921 734
1.7179375 -0.7634939 0.45455062 919
1.6069455 -0.76545978 0.42486334 1865
1.4157658 -0.8180657 0.39618397 984
1.2333145 -0.86522079 0.44022626 2432.5
2.6193876 -0.83151203 0.43340576 1973.5858
2.5353975 -0.80357182 0.44362801 1671.5333
2.4109855 -0.80071688 0.47272068 1259.3334
2.3615565 -0.81094861 0.44478899 657
1.9784989 -0.85541719 0.41948503 3506.2856
1.9361942 -0.84467161 0.42609048 3082.2727
1.2136521 -0.95840228 0.43854165 356
2.6455979 -0.91913438 0.4370963 1275.0411
2.5967789 -1.0069977 0.44353056 181
2.5721045 -1.0359366 0.40949237 173.16667
2.7324979 -1.1646439 0.46363103 2192
2.9368961 -1.2227247 0.44467545 1675.6765
2.8474948 -1.2405509 0.45538682 2195
2.7576926 -1.2151717 0.45530164 2719.6667
2.6376953 -1.2396061 0.42395818 664
2.5685856 -1.2746954 0.4677695 319
2.9503474 -1.3068639 0.41967255 1493.8438
2.822207 -1.295174 0.44337177 267.75
2.7658443 -1.326462 0.43003035 446.6875
2.5405927 -1.3287785 0.37964332 78
2.4357071 -1.3824425 0.46241194 377
2.3260036 -1.3995476 0.45956767 2544
2.9539914 -1.4014119 0.43669832 1865.7667
2.9009893 -1.4341745 0.4450165 703.33331
2.7212148 -1.4136544 0.38577867 876.66669
2.6357865 -1.4212443 0.39037621 292.30768
2.4095953 -1.4275981 0.42788851 1612
2.3311548 -1.4515325 0.42359126 2999.353
2.2696438 -1.4396132 0.41213489 2228.8
2.9636185 -1.5100297 0.43681788 1763.65
2.8936243 -1.4794314 0.44261467 820.75
2.3254344 -1.5159373 0.38547337 1984.3334
2.9885719 -1.5929084 0.44383162 1821.8462
2.7190475 -1.9299375 0.4156785 2637.6001
1.378407 -2.0343421 0.42419195 3509
2.7574148 -1.9845713 0.41395789 1191
2.732213 -1.992486 0.41291648 3569.3333
1.3899977 -2.0840974 0.42340744 2512.5
3.3043365 -2.51982 0.44399256 4229.6665
3.2801147 -2.5144382 0.44395566 3976
-0.3721149 -2.7495885 0.47541595 946
3.4464488 -2.607991 0.44242632 2495.5
3.3329446 -2.5761228 0.44256747 1878.5
3.2566109 -2.5849514 0.44169998 1608
3.1500788 -2.6216979 0.43968379 454.5
-0.37607217 -2.8466163 0.47475344 1236.6666
3.6022673 -2.7007062 0.44061786 507
3.5552344 -2.6849649 0.41668618 1895.7273
3.4480042 -2.6665096 0.44072962 2339.25
3.3695149 -2.6408174 0.44094408 1033
3.2292485 -2.6915796 0.40769678 294.14285
3.1509595 -2.6908603 0.43767285 530.59998
3.0285568 -2.7170694 0.43571347 1307.25
2.9895794 -2.7402878 0.43463296 863
-0.37618852 -2.9109588 0.4743256 1177
3.6252646 -2.7650392 0.40579176 115.8
3.5367088 -2.7256179 0.43953902 1012
3.3062222 -2.7648008 0.38167048 3874
3.2858891 -2.7587745 0.38181025 3910
3.1314719 -2.7796206 0.3790068 466.25
3.6577001 -2.8351576 0.40818876 113.5
3.5340044 -2.913553 0.37513858 184
3.052388 -2.8796937 0.4312368 1055
2.8040671 -3.1460624 0.42087531 4125.5
-0.49816966 -3.3363869 0.47114307 1499
-1.1191909 -3.4179335 0.46850485 2071
5.0744743 -3.1904335 0.34923178 172
4.9815769 -3.1810238 0.40178698 2118.6667
5.077621 -3.2646644 0.38545913 271.16666
5.0073652 -3.2875762 0.38496149 1741.5
5.07866 -3.3317952 0.42305034 650
5.0211253 -3.3928611 0.4216249 283
2.1269779 -3.5719116 0.39988017 1032
-1.6658924 -3.8330882 0.46394557 233.5
-1.642381 -3.9068079 0.4635424 211.5
2.6918566 -3.769872 0.40164775 1441
2.609673 -3.7625995 0.40090978 2362.3333
2.5531206 -3.7769248 0.39982647 2873.5
-1.539623 -3.9940932 0.46332639 3029
-1.6446841 -4.0216966 0.46278828 3727
2.5115519 -3.8118515 0.39832342 1232
2.9208827 -3.892885 0.40049732 830
2.8122272 -4.3162045 0.38712204 430
2.6363926 -4.416893 0.3823694 1181.5
2.5887372 -4.4071379 0.38212866 1217
2.3207517 -4.4176154 0.37868553 1050
2.2654526 -4.4298124 0.37764668 1123.3334
2.1719656 -4.4360437 0.37627089 2240.5
2.1075053 -4.4307199 0.37557441 929
-3.1807487 -5.0245724 0.45105213 2163
1.6331191 -4.7820768 0.35908031 61
-3.1563923 -5.187326 0.45008457 3712
1.7996159 -5.211287 0.34943026 1102
1.7330136 -5.2170835 0.3483603 1085
5.4281259 4.5807629 0.58476013 79
4.6070437 2.6171048 0.55283058 102
3.1094201 1.6026763 0.55461937 958.5
-0.7328856 0.83521521 0.61068487 119
3.0700006 0.86212945 0.55340606 637.78571
2.9993658 0.85742474 0.55324042 561.93939
2.9005754 0.85669863 0.55347306 692.63336
2.8043947 0.85088634 0.5536145 632.09998
2.7050216 0.84235537 0.55382597 596.93335
2.6057138 0.83422458 0.55429572 579.11108
2.5046515 0.82852852 0.55489415 543.88892
2.4024248 0.82371736 0.55573404 515.875
2.3060548 0.81749046 0.5452944 528.42108
2.200695 0.80870366 0.53553694 525.64288
2.1122541 0.79653609 0.53562325 852
2.0042477 0.80064666 0.53806406 480.84616
1.904897 0.78955209 0.53663856 473.83334
1.8021235 0.78287899 0.53477114 490.36365
1.6969445 0.77891672 0.53757501 476
1.6008952 0.77499938 0.53809828 512.125
1.5090301 0.76683307 0.54169023 499.22223
1.4001586 0.76239407 0.53604132 470.66666
1.2965434 0.7520709 0.53974891 449.5
1.2128072 0.73924911 0.54010057 861.33331
1.0941999 0.75158346 0.54127079 296.5
1.0041749 0.73867714 0.54650581 276.85715
0.91165709 0.73118198 0.5355534 228.8
0.8129375 0.7254113 0.54299611 211.16667
0.71437573 0.72255933 0.54374552 189.5
0.61344624 0.71715117 0.58166319 174.33333
0.38373137 0.69911909 0.58577526 122
0.2963295 0.70144343 0.58754289 235
0.22915292 0.69425476 0.58873552 104.5
0.15623212 0.68812513 0.59006977 72
-0.91586947 0.6213156 0.61081296 589
-0.98437047 0.61041892 0.61206383 466.5
-1.0835016 0.57763422 0.61361194 776
-1.1893699 0.57383645 0.61577106 846
3.0910673 0.85410833 0.55292249 1065
3.1368914 0.69698679 0.54716784 166.75
-0.81935287 0.40323862 0.60538083 1957
3.1853998 0.58948171 0.54717404 193.14285
3.1577444 0.6490885 0.54551315 155.60001
-0.80669856 0.35990301 0.60446882 1722
3.2849479 0.47098771 0.50872695 333.75
3.2465925 0.50476289 0.54433489 312.08109
3.4217668 0.39598027 0.53748071 373.59702
3.336514 0.4368774 0.53908646 363.35065
-0.80482602 -0.2082333 0.59709197 256
2.1383853 -0.37753454 0.53544796 2312.875
2.1279597 -0.38402432 0.53183317 2952
1.9934912 -0.39427972 0.51716506 262
1.8655052 -0.41722593 0.54957616 84
1.8193696 -0.39158842 0.53065318 85.400002
2.0721092 -0.48382556 0.53308624 1043.7693
1.9853115 -0.45124042 0.49953997 328.33334
1.9086626 -0.4327637 0.57262731 70
2.0610955 -0.5574137 0.53139186 1149.5
2.0384512 -0.59782243 0.5316335 672.5
2.0291653 -0.64656818 0.53144896 771.58826
1.8291888 -0.69455123 0.55475867 837.5
1.5879345 -0.73828346 0.53498751 2745.5
2.4704671 -0.78794682 0.5213359 1354.5
2.4042599 -0.76673186 0.52082503 1577
2.3529217 -0.7485612 0.51518279 349
2.1848195 -0.74595082 0.52536792 4244.9287
2.130518 -0.74794006 0.54118115 1886.6
1.916801 -0.8304705 0.57017756 490
1.588284 -0.77081221 0.54042894 2613
1.2801905 -0.83847511 0.52037263 4910
1.2633502 -0.85437727 0.52039135 4258.5
2.6097441 -0.82145685 0.53955483 1687.9362
2.5170579 -0.83497906 0.52347499 1312.8182
2.4211411 -0.81232482 0.54265207 1536.5834
1.9435792 -0.83904457 0.56897748 3547.5
2.6266048 -0.91446328 0.5238989 2184.0784
2.5358276 -0.90904367 0.52227139 1099.5
2.4546969 -0.91644681 0.52170742 1880
2.7165396 -1.170348 0.52662122 2161.7222
2.6876135 -1.1767092 0.50763988 1707.5
2.9401519 -1.2180215 0.51604545 1885.1772
2.8361309 -1.237849 0.51321441 2635.0435
2.7450619 -1.2327412 0.53089607 3017.6111
2.6484215 -1.236747 0.53530031 2461.5
2.5411603 -1.2312883 0.52558064 2521.8
2.4778605 -1.237623 0.51512933 2144.7144
3.0102885 -1.3479207 0.51832932 1819.3334
2.9729719 -1.3093209 0.52013147 1967.7391
2.8170271 -1.279735 0.54213643 2651
2.7753711 -1.2806106 0.54590398 3151.2222
3.0200517 -1.4021386 0.50660986 1793.75
2.9343252 -1.4058011 0.56230211 2549.4167
3.0280714 -1.4991384 0.50691009 1367
2.9437284 -1.5236087 0.55212986 2647
1.5460188 -1.6070236 0.54149747 3014.2
2.9764194 -1.6105148 0.54404598 2825.7273
1.5184462 -1.6697375 0.54234451 2701
1.3651319 -2.0154071 0.48605567 1497
1.2879491 -2.0718832 0.54908103 104
1.295444 -2.0860975 0.48536223 393
3.3014581 -2.5195777 0.51182783 4095.8
3.2440481 -2.5262246 0.50536031 4016
3.1352718 -2.5360746 0.49150324 4355
3.040252 -2.537112 0.49090844 3739.7144
3.5038242 -2.6090822 0.49362433 2584
3.453459 -2.5916352 0.51340622 3365.5
3.3582361 -2.5581353 0.49285609 4320
3.6024351 -2.7093771 0.52048403 2218.5
3.5544484 -2.6921313 0.51995629 2027.8
3.4542184 -2.6778135 0.49295616 2576
3.6175671 -2.7242613 0.49390084 1208
3.5594194 -2.878937 0.54991496 1750
3.4741995 -2.9173853 0.49197835 2224
3.4378829 -2.9751685 0.55084789 2845.5
2.8039374 -3.1444917 0.51915085 3994.5
5.0543113 -3.1803577 0.50356221 435
5.0944505 -3.2702563 0.50345117 233
5.015214 -3.2844222 0.50266188 2263.5
5.1045585 -3.3768661 0.50298053 554
5.0062218 -3.3683114 0.50214392 2159
4.9896402 -3.4422655 0.50161296 731.5
2.7245462 -3.6198776 0.48386621 1608
2.6051917 -3.7368052 0.48260379 2631.25
2.5331879 -3.7700822 0.48202562 2184
2.584084 -4.4268699 0.47918838 1136.5
2.320394 -4.4173384 0.477687 1061
2.2660785 -4.4263635 0.47733349 990.66669
2.1702037 -4.4403338 0.47672498 2208.5
2.1040273 -4.4399796 0.4763577 835
1.8029237 -4.9769034 0.47207749 851
1.7976491 -5.2156587 0.47087902 1168
1.7532501 -5.2044463 0.47069031 1098
3.8297241 -7.6938314 0.47220045 167
4.1441226 -7.7387166 0.47425431 1307
4.4762793 -7.8597369 0.47613734 48
4.2341914 -8.1565752 0.47295445 76
4.4416933 -8.6688013 0.47207779 101
4.3699851 -8.7057476 0.47137594 66
4.5297027 -8.9477701 0.47141922 51
5.2383966 4.1865201 0.70142227 87
-3.9601967 2.6215451 0.70895547 265
-3.9649546 2.5435905 0.70748872 302
-3.9531181 2.1740005 0.70012009 262
-3.9413989 2.0932438 0.69838387 446.5
-3.9421303 2.0174885 0.69700718 487
-3.940583 1.9665736 0.69605196 214
-3.9233863 1.8111852 0.69293427 590
-3.9254773 1.7377487 0.69169754 591
-3.9230335 1.6388344 0.6899516 763
-3.8814766 0.91455531 0.67770141 994.5
-3.8866355 0.8459574 0.67682993 1133
-1.4367182 0.85551763 0.62546772 140
-3.8594682 0.70282173 0.67426127 1305
-1.4085329 0.81556964 0.62422001 191
-3.8414538 0.60846889 0.67260528 2066
-3.8590009 0.65693533 0.67362934 1714
-0.53073049 0.78165913 0.70821029 127
-3.788305 0.53229249 0.67046404 1264.5
3.0715721 0.85924244 0.65749437 723.30768
3.0015483 0.85885561 0.65884155 642.51514
2.9042642 0.85687459 0.64631009 747.68182
2.8044634 0.84921479 0.64501381 718.95001
2.7054446 0.84015453 0.64734942 675
2.6055064 0.83316159 0.65038854 648.33331
2.5032382 0.82933676 0.65427244 609
2.4007373 0.82471704 0.65848297 567.3125
2.2958789 0.81605852 0.64771777 599.42859
2.2012916 0.80685639 0.64522946 557.80951
2.1104469 0.79716504 0.64883685 699.11108
2.0134358 0.80017316 0.64427012 534.93335
1.9086452 0.78897631 0.63602996 505.46155
1.8054152 0.78291988 0.63834524 521
1.7090292 0.77691722 0.64234918 534.79999
1.6104507 0.77173603 0.64361167 520.77777
1.5063882 0.76378214 0.6510855 539.59998
1.3944519 0.76018214 0.65627623 512.25
1.294718 0.75207448 0.6608476 473.25
1.2241435 0.74061882 0.66381311 617.5
1.112524 0.74946558 0.6698215 315.25
1.0133791 0.73456597 0.65429515 282.60001
0.90487123 0.72804618 0.64543909 228
0.80986047 0.72613621 0.64928114 215.33333
0.69678617 0.71979737 0.65376967 201.33333
0.59450841 0.71502542 0.65790129 177.5
0.30748296 0.69670618 0.66954249 197
-1.2943842 0.56855321 0.61789429 878
-1.3692796 0.55516875 0.61926526 907
-3.775017 0.46299824 0.66928369 428
3.1063302 0.81053972 0.64076489 541.66669
3.1404231 0.69420195 0.63878852 146.33333
-1.422261 0.35110131 0.6174103 2833
3.1870346 0.5794301 0.6281212 230.39999
3.1617067 0.63115704 0.64134562 192.66667
-0.80427241 0.34555057 0.7105341 732
-1.4305265 0.32197878 0.61718172 2924
3.2877774 0.47037295 0.63061345 413.5
3.2420311 0.50616026 0.6407184 371.63416
3.4201035 0.39347324 0.63873905 434.54901
3.3377028 0.43556592 0.64484864 444.76666
3.2808094 0.46395013 0.68485987 466
3.4480934 0.37617061 0.60216242 446
-0.82014585 -0.20731372 0.70222205 284
-0.80311322 -0.23456602 0.70108342 111
2.1452174 -0.3875742 0.6391682 3887.875
2.120111 -0.37753534 0.62622255 934.44446
2.0380697 -0.41597325 0.60010523 35
2.0792217 -0.47730607 0.60623938 562.9231
2.0040698 -0.45980316 0.62211919 147.8
1.8101671 -0.53478718 0.65349597 238
2.0614069 -0.5674237 0.59931076 502.84616
2.0970526 -0.69909644 0.64173585 2650
2.0475237 -0.64237618 0.5974353 323.79999
1.956109 -0.67697608 0.60384291 320
1.5963407 -0.73643184 0.6292327 2385.6667
1.5210178 -0.69254607 0.68043959 857.5
2.1934285 -0.74354506 0.63211244 3818.2
2.0822353 -0.72177184 0.59497994 2846
1.9156108 -0.83090538 0.64403373 397.66666
1.6918385 -0.7681632 0.6225304 1756
1.5972371 -0.76446116 0.6291852 2557
1.2964957 -0.83633626 0.59859312 4010
1.2343457 -0.86388433 0.63699251 2964.6667
2.6211295 -0.80751908 0.63240045 1623.5122
2.541826 -0.86431688 0.59253293 1322.75
1.9827486 -0.85758817 0.64401811 3897.25
1.9488407 -0.83967805 0.62907135 3753.5
2.5996468 -0.9014715 0.58321327 1160.8334
2.5524189 -0.93640268 0.58847493 774.5
2.7125249 -1.1723975 0.62393183 2544
2.6858685 -1.1773651 0.64156646 2117.2
2.9177015 -1.2290494 0.61210269 2204.8979
2.8510232 -1.2364502 0.62783778 2508.6584
2.7475803 -1.2444352 0.62529474 3078.1355
2.6778493 -1.2468748 0.62900531 2527.6521
2.5726457 -1.2710261 0.58957601 1022
2.4219022 -1.2870216 0.67556584 3163
2.3492303 -1.29283 0.65239841 712.16669
2.2565165 -1.2971466 0.64490104 733.85712
2.1900296 -1.2978079 0.64498526 806
2.9117904 -1.3283867 0.63224655 2475.5
2.8994341 -1.337154 0.62700677 2624.5264
2.4380178 -1.3707737 0.62267447 1307.25
2.3737121 -1.3483095 0.65085822 1392.6364
2.2990575 -1.3194593 0.62574893 1289
2.9234922 -1.4160883 0.63304663 2490.8096
2.9054935 -1.374256 0.62415487 2732.8
2.3461304 -1.4159156 0.60659778 2559.375
2.2906625 -1.4281924 0.59754604 952
1.4733152 -1.5408081 0.64931726 3714.6667
2.9332397 -1.5125492 0.61088169 2307.0688
1.4863288 -1.5981184 0.63806689 2813.8889
1.4147537 -1.6183491 0.59985059 1499
2.9541564 -1.6088881 0.6156441 3387
2.9204345 -1.6325217 0.65552175 2511.75
2.0567703 -1.6303185 0.66037416 1222
1.4546955 -1.7247241 0.62794894 3162.875
1.2500985 -1.7605287 0.6088509 4457.3335
1.2232075 -1.7406567 0.60957181 1024
1.3819849 -2.0416007 0.64043224 2847.5
1.4122179 -2.0770419 0.67085224 3531
3.291549 -2.5037138 0.61335695 4085
3.2638266 -2.5016732 0.61664063 3972
3.4470055 -2.5947957 0.62223333 3056.3333
3.3012066 -2.5546284 0.59159219 2172
-0.36355042 -2.8553259 0.5826022 1266.5
-0.36019826 -2.9013765 0.58283293 1191
3.5828054 -2.73088 0.61952281 1973.8334
3.4280572 -2.8189921 0.60410994 2692
3.5596852 -2.8960452 0.60870898 183
3.4069169 -2.9879165 0.6114918 2619
2.800128 -3.1566899 0.61853898 3811.5
-0.49335504 -3.3333824 0.58817017 931
-1.0862596 -3.397486 0.59861684 1087
5.0679007 -3.2037513 0.58011878 352
5.0937009 -3.2453208 0.58133036 179
5.0173397 -3.2896075 0.58037138 2065
2.7690454 -3.4145827 0.59296262 3039
-1.4926865 -3.7209735 0.60776144 2625.5
5.0950804 -3.3429186 0.5828802 350.5
5.0104365 -3.3570125 0.58130157 2724
4.8739457 -3.418438 0.57952058 2145
-1.5125763 -3.8205884 0.60878968 2157.5
4.989399 -3.4435091 0.58226639 3366.5
4.9179916 -3.4385021 0.58073294 2998.5
2.9915838 -3.5930731 0.59894866 4020.75
2.9243143 -3.6366832 0.57443589 3644.3333
2.8211155 -3.6296406 0.56112325 3892
2.7534881 -3.622036 0.56088948 3680
-1.353442 -3.9079359 0.60677624 2529
-1.5054481 -3.9260795 0.60943621 2118.3333
4.9451685 -3.6053233 0.58405101 1106
3.1007936 -3.7437451 0.62393486 2834.5
3.0344391 -3.7176464 0.60306048 3014.375
2.9080911 -3.6932068 0.64159763 3153.3333
2.8270254 -3.6996102 0.64205229 2926
2.7469106 -3.6965954 0.64218748 2800.3333
2.6150389 -3.7120831 0.59732836 2587.5715
2.5541611 -3.7301774 0.56290042 2247
4.9306197 -3.6722467 0.58489478 648
3.1123581 -3.7678688 0.59133017 2879.3333
2.5561998 -3.7994001 0.64763832 593
3.1315923 -3.8623862 0.56660938 1858
3.3136415 -3.9577208 0.56945741 885.66669
3.2593675 -3.9955428 0.56988549 750
2.4471753 -4.0451303 0.56888086 1051
2.3188081 -4.4214711 0.57603157 1231
2.2636333 -4.4330187 0.57630438 1205.6666
2.1708765 -4.4370451 0.57651693 2355.25
2.1025953 -4.4431 0.57676035 767
3.3391604 -5.0799732 0.59180331 1272
1.7937374 -5.2257323 0.59176981 1298
1.7107172 -5.2312713 0.59209073 1330
3.366312 -5.1692791 0.5937466 1280
3.3944576 -5.2974119 0.59646916 1316
4.5578232 2.487922 0.7091229 82
-1.463156 0.86263072 0.75142795 183
3.0678692 0.85647714 0.74471641 732.375
3.0010173 0.8579973 0.74821216 718.85712
2.9015441 0.85373175 0.73417127 847.20001
2.8062689 0.84535146 0.73646629 797.29999
2.7072713 0.83668101 0.74093002 760.33331
2.6068883 0.83093858 0.7467339 727.48151
2.5074511 0.82585371 0.75334197 698.15387
2.4082861 0.82236707 0.74481517 632
2.304894 0.81502581 0.74608582 648.26666
2.2038369 0.80827641 0.75670218 622.26666
2.109745 0.79776156 0.76240414 700.33331
2.0027623 0.79692841 0.75729382 609.875
1.9139452 0.7882607 0.73486131 609.83331
1.8131733 0.77975428 0.7405411 636.45453
1.7041829 0.77628314 0.74463224 641.36365
1.6089325 0.76764035 0.75444502 630
