# .PCD v0.7 - Point Cloud Data file format
VERSION 0.7
FIELDS x y z intensity
SIZE 4 4 4 4
TYPE F F F F
COUNT 1 1 1 1
WIDTH 1171
HEIGHT 1
VIEWPOINT 0 0 0 1 0 0 0
POINTS 1171
DATA ascii
-3.7600231 1.6300333 2.048646 493
-3.771657 1.6875266 2.0560906 417
-3.7574492 1.5385746 2.0408919 680.66669
-3.7395163 1.4447846 2.0297866 463
-3.7513447 1.3931093 2.028995 551
-3.7257476 0.71898246 2.1240566 1567
-3.7226253 0.6495797 2.1213467 1760.5
-3.7211318 0.54580319 2.1186383 3463.3333
-3.7117381 0.44211352 2.1145432 3411
-3.7142982 0.33879042 2.1143074 3374.3333
-3.7117448 0.23547484 2.1134055 3305.3333
-3.7116523 0.14935297 2.113703 3292.5
-3.710155 0.063195467 2.1141386 3260.6667
-3.7064142 -0.040174007 2.1147604 3203.3333
-3.7001371 -0.1434361 2.1153991 3296.6667
-3.6958542 -0.22966078 2.1166959 3266.5
-3.6986089 -0.2820228 2.1191239 3259
-3.6956758 -0.31647083 2.119576 3241
-3.6518569 -1.0898892 2.0195439 3195
-3.6492581 -1.1620789 2.0248122 3198.3333
-3.6478839 -1.2533458 2.0322828 3122
-3.6430578 -1.3443683 2.039434 3158.3333
-3.6356797 -1.4539456 2.048281 3088.3333
-3.640439 -1.549595 2.0590391 3056.5
-3.6413169 -1.645077 2.0694098 3191.6667
-3.6377597 -1.7592266 2.0813856 3214.3333
-3.6317153 -1.8542039 2.0911744 3137.5
-3.6308503 -1.9522786 2.1029725 3207.6667
-3.6267414 -2.0300543 2.1118915 3193
-3.59724 -2.4521189 2.017338 3670
-3.5944295 -2.5570178 2.0315144 3740.3333
-3.5873885 -2.6611092 2.0452349 3798
-3.5845528 -2.7470176 2.0574505 3831.5
-3.5818377 -2.8564138 2.0736091 3763.3333
-3.5819559 -2.9691651 2.0912273 3809.5
-3.5841408 -3.0621037 2.1064749 3830
-2.9529767 -3.2572584 2.1800447 3088
-3.1705761 -3.257477 2.0706081 3109
-3.2848444 -3.2656393 2.0905936 3202
-3.3948517 -3.2686496 2.1091673 3179.5
-2.9219894 -3.5710106 2.090363 3555
-2.9220433 -3.6441183 2.1046898 3782
-2.9227357 -3.74369 2.1245465 3731.5
-2.9172373 -3.8400841 2.1431713 3678
-2.9145274 -3.9407086 2.1633587 3715
-2.9114132 -4.0164905 2.1786046 3737
-3.0003052 -4.2164159 2.0708902 3915
-3.1514854 -4.4381309 2.1320653 4037
-3.1483092 -4.5223765 2.1483657 4012
-3.1197858 -4.9714217 2.0619903 4152
-3.1222825 -5.0708618 2.0813439 4118
-3.1181741 -5.1654587 2.0993757 4244.5
-3.1215868 -5.2696934 2.12008 4246
-3.1141171 -5.3643084 2.1381776 4191.5
-3.8037148 2.9259982 2.2070901 184
-3.8085632 2.8447542 2.1963954 178.5
-3.8106189 2.7426097 2.1825502 195.33333
-3.806046 2.6389847 2.167531 248.5
-3.8028412 2.5572648 2.1561396 250.5
-3.7942848 2.4546645 2.1412992 215
-3.7825027 1.8336402 2.2107167 201
-3.7926788 1.8362721 2.2135925 198
-3.7816782 1.7225761 2.199991 343
-3.7853217 1.7602978 2.2044091 355
-3.7700353 1.6284082 2.1886704 470.5
-3.7853179 1.6866673 2.1976757 358
-3.7742004 1.5383452 2.1822546 513.33331
-3.7635798 1.4459584 2.1723077 422.5
-3.7545505 1.3547074 2.1633811 546.33331
-3.7610798 1.2487981 2.1580508 666
-3.7551017 1.1415771 2.1500828 832.33331
-3.7474275 1.0348926 2.1424026 1038.6666
-3.7374163 0.94616437 2.1355793 1451
-3.7432585 0.8594352 2.1335285 1435.6666
-3.7412791 0.77213264 2.1298454 1635.5
-3.7357635 0.65023267 2.1247976 1843
-3.6942086 -0.36853936 2.1211925 3175.5
-3.6906939 -0.45537439 2.1239924 3138.6667
-3.691124 -0.56062758 2.129231 3156
-3.6867223 -0.66564643 2.1338937 3117.6667
-3.6829677 -0.75352931 2.1382933 3128
-3.6786933 -0.84170628 2.1430948 3062.6667
-3.6762457 -0.94868326 2.1502488 2978
-3.6720719 -1.0559958 2.1576889 3010
-3.6686382 -1.1643196 2.166105 2954
-3.6613855 -1.2540181 2.1724818 2938.5
-3.6624756 -1.3467638 2.1817667 2962
-3.6647639 -1.4594756 2.1939294 2889.3333
-3.6668282 -1.5544633 2.2047467 2919
-3.6606545 -1.6284857 2.2116303 2977.5
-3.6291552 -2.0711188 2.1177187 3243
-3.6291447 -2.1519322 2.1284235 3286
-3.6217456 -2.250628 2.1403124 3361
-3.6186342 -2.352592 2.1540773 3480
-3.6149797 -2.455565 2.1683316 3494.5
-3.6150441 -2.5405371 2.1811035 3509
-3.611321 -2.6462078 2.1966746 3544.3333
-3.6046877 -2.7298288 2.2085707 3515
-2.9293542 -3.0972323 2.2855341 1843
-2.9581947 -3.051126 2.2818809 1788
-3.5811415 -3.1532538 2.1208491 3887
-2.8051648 -3.2607744 2.2958603 1870.3334
-2.983264 -3.2787936 2.1896799 2949
-3.0798783 -3.2556913 2.2022738 2741
-3.1936932 -3.2652435 2.224577 2882.5
-3.2879601 -3.2596979 2.240618 2943
-3.4930491 -3.2621899 2.1243079 3193
-3.5730429 -3.2424366 2.1343427 3916.5
-2.7003059 -3.37798 2.3018343 1941
-2.9418383 -3.3640568 2.1994333 3220.5
-2.6252365 -3.4799957 2.3112159 2039
-2.656652 -3.435631 2.3067713 1959
-2.9456339 -3.4605448 2.2197199 3266
-2.5237312 -3.5836003 2.3173432 2021
-2.5793867 -3.5359905 2.315969 2035
-2.9427886 -3.5778024 2.2435291 3299
-2.9482255 -3.5338769 2.235286 3283
-2.4266295 -3.6906552 2.3263564 2031.5
-2.473691 -3.6358535 2.321125 1999
-2.9331675 -3.6432247 2.2557104 3449
-2.3248711 -3.7932844 2.3347995 2003.5
-2.3732305 -3.7396879 2.3294334 2078.5
-2.8996296 -3.7644887 2.2762418 2881.5
-2.2169256 -3.8896227 2.3419554 2084.5
-2.2709999 -3.8416386 2.3382785 2039.5
-2.813365 -3.8684983 2.2853034 2583
-2.1221547 -3.9731545 2.3490508 2024.3334
-2.1743274 -3.9234796 2.3440475 1972
-2.7004032 -3.9745908 2.291806 2547
-2.7585692 -3.9231443 2.2889862 2556
-1.9517651 -4.1068554 2.3597729 2065
-2.006803 -4.0605488 2.3551714 2075
-2.0723577 -4.025291 2.3553286 2087
-2.6022344 -4.0674238 2.2986851 2479.25
-2.9065709 -4.0652428 2.1881208 3788
-1.8380728 -4.1950068 2.368304 2029.3334
-1.9121466 -4.143393 2.364193 2119.5
-2.4457579 -4.210341 2.3103919 2506
-2.505518 -4.1612782 2.3069599 2503
-2.9317179 -4.1413279 2.2075498 3494
-1.7901034 -4.2494383 2.3770843 561
-2.3327293 -4.3145957 2.3206639 2501
-2.3918591 -4.2651858 2.3164132 2495
-3.0237961 -4.2792273 2.2491784 2961
-2.2229404 -4.3937321 2.3262837 2512
-2.2876306 -4.3507295 2.3237658 2514.5
-2.9370422 -4.396009 2.2628531 2925.5
-2.9898348 -4.3321576 2.2559676 2989.5
-2.1237264 -4.484108 2.3370876 2594.3333
-2.1733484 -4.4245415 2.327872 2541
-2.8282275 -4.4920983 2.270138 2895
-2.8757296 -4.4518375 2.2672131 2947
-2.044075 -4.5384655 2.3416846 1966
-2.7201962 -4.5884228 2.2785845 2916.5
-2.7823968 -4.5339136 2.2738194 2932
-3.1469598 -4.5800581 2.1597259 4034
-2.6121721 -4.6844492 2.2879629 2951
-2.6725531 -4.6282024 2.2819917 2957
-3.1424894 -4.665534 2.1764362 4036.5
-2.4491444 -4.8114471 2.2996633 3019
-2.5175147 -4.7642388 2.2959535 3022.3333
-3.1346211 -4.7796998 2.1988084 4112
-2.3328018 -4.8970518 2.3080602 2120
-2.4033699 -4.852953 2.3047369 3005.5
-3.1365757 -4.8748035 2.2185826 3958
-3.1024451 -4.9668231 2.2341497 3431
-3.0060062 -5.0594878 2.2438498 3302.6667
-2.8245816 -5.190908 2.2546217 3222
-2.9026146 -5.1445994 2.2519705 3294.3333
-2.7188582 -5.2724972 2.2629921 3250
-2.7868824 -5.2153292 2.2564838 3241
-2.65236 -5.33144 2.2703018 817
-3.1139703 -5.4686933 2.1589661 4257
-3.1070118 -5.567656 2.1783235 4189.5
-3.0975375 -5.6654234 2.1974025 4218
-3.0954099 -5.7739716 2.2194314 3772
-3.0486641 -5.8309274 2.2277436 733
-3.833252 3.1521716 2.2474682 178.5
-3.8368082 3.0678103 2.2352283 190
-3.7404103 2.7072117 2.3075831 107
-3.777009 2.6412187 2.3067653 106
-3.8170695 2.6165054 2.3128641 156
-3.8065066 2.5523176 2.3014257 222
-3.8149304 2.4559674 2.2905109 185
-3.8162036 2.3579717 2.278126 185.5
-3.7780957 2.2096584 2.2504902 269
-3.8069816 2.276906 2.265759 174.5
-3.7885141 2.155462 2.2467008 200
-3.7962718 2.0436106 2.2360008 260.5
-3.8062301 1.9520288 2.2287111 197.33333
-3.6556358 -1.6841729 2.2169182 2961
-3.6524844 -1.7602224 2.2253668 2999.3333
-3.6529117 -1.8576527 2.2376802 3121.5
-3.6410851 -1.9514019 2.2471242 2682
-3.5958672 -2.051729 2.2501059 1813.6666
-3.51717 -2.1771352 2.2496972 1781
-3.5483413 -2.1309676 2.2502089 1808.5
-3.4900622 -2.2451496 2.2536447 1832
-3.4040184 -2.3860972 2.2560451 1858
-3.4494758 -2.3270538 2.2569728 1848.5
-3.3699093 -2.4711449 2.26229 1904.6666
-3.3082523 -2.5623696 2.2640178 1851.3334
-3.2309017 -2.686183 2.2688761 1869
-3.263411 -2.6417515 2.2680151 1867.5
-3.1771908 -2.7601964 2.2708795 1824.25
-3.6045494 -2.773761 2.2156277 3565
-3.1155367 -2.8717949 2.2787943 1869.6666
-3.5967059 -2.8583028 2.2279694 3559.3333
-3.0056581 -2.9956379 2.2803056 1831
-3.0630245 -2.9462671 2.2822878 1855.5
-3.5759425 -2.958761 2.2407842 2464
-3.5064721 -3.0537868 2.243902 2418
-2.8943243 -3.1612179 2.2919276 1898.6666
-3.4194727 -3.1835265 2.2507153 2430.5
-3.4502921 -3.1337781 2.2474449 2464
-2.8323402 -3.250747 2.2988536 1949
-3.3732347 -3.246536 2.2537818 2531.5
-2.762754 -3.3346591 2.3038666 1964
1.6703303 -7.6816158 -0.29808846 200
1.3816509 -7.749372 -0.32005915 343
1.088762 -7.7745786 -0.3394548 502
0.19040263 -7.8926616 -0.40889943 330
0.78859568 -7.9381948 -0.37280324 501
0.70896304 -8.0329676 -0.38645107 429
0.60812235 -8.0249729 -0.3923012 423.5
0.53301322 -8.0107498 -0.39598766 344
0.22389019 -8.0508165 -0.4207139 342
1.3403254 -8.0095501 -0.34586194 192
1.2155468 -8.1001501 -0.36127314 346.5
1.139153 -8.105442 -0.36626825 448
1.0115583 -8.1142483 -0.3747668 420.5
0.90922707 -8.1268806 -0.38221568 458.5
0.83265209 -8.1223764 -0.38660565 548
0.31127214 -8.2102137 -0.42893749 192
0.25918031 -8.2098627 -0.43251133 192
0.64808929 -5.9316683 -0.35256705 394
1.7640796 -9.1552401 -0.19306444 210
1.7075585 -9.1728468 -0.19732569 695
-3.5146346 0.24979344 -0.56470704 343
-3.5017381 0.16405921 -0.56169897 802
-3.5032926 0.1354747 -0.56194848 819
-0.14127052 -2.0745707 -0.28501001 989
-0.072697163 -3.3019896 -0.29880002 798
0.16895163 -4.9723849 -0.27939394 530
-0.16073787 -4.9598656 -0.30606374 389
0.19566524 -5.0075803 -0.28119886 384
0.14405251 -5.6829367 -0.21493405 545
1.5613008 -5.6597581 -0.12209424 157
0.61562777 -5.7542105 -0.18757927 343
0.58323705 -5.7033038 -0.18521088 442
0.33611524 -5.7693186 -0.20848669 266
0.099324584 -5.7277527 -0.22229753 207
0.38601637 -5.8199558 -0.20943682 119
0.63799477 -5.9459119 -0.20329896 781
1.3722391 -7.7755055 -0.12499987 958
1.0783429 -7.7958274 -0.14358841 1024
0.77776188 -7.9438548 -0.17169027 682
0.61986196 -8.0733261 -0.19012736 506
0.5196054 -8.0484514 -0.19495241 282
1.3299589 -8.0192327 -0.1433603 515
1.2047265 -8.0925636 -0.15546952 725
1.1282802 -8.0744276 -0.15881206 853
1.0006595 -8.1261826 -0.1698709 778.5
0.89820254 -8.1348705 -0.17669758 745
0.82181102 -8.1223936 -0.18060395 692
0.6943081 -8.1160603 -0.18818748 481.5
1.5129783 -8.7041655 -0.17762502 72
1.4606302 -8.764143 -0.18451461 487
0.51383936 -8.9281654 -0.25268459 529
-3.4982266 -0.034137279 -0.44466788 821
-3.4956217 -0.06255725 -0.44426674 913
-3.4824934 -0.17591533 -0.44238374 606
-3.4470387 -0.28661352 -0.43681476 416
-3.4602637 -0.53279996 -0.44206271 1031.5
-3.4546757 -0.60450339 -0.4421975 1155
-3.4382257 -0.70351166 -0.44104981 1122
-1.1520659 -0.57611173 -0.27538478 988.5
-3.4290242 -0.80433559 -0.44147032 1005
-1.073959 -0.68003744 -0.25048503 1261.2
-3.421567 -0.906178 -0.44249353 963.25
-1.0573245 -0.75217938 -0.23422475 1208.5834
-3.4242806 -0.99645865 -0.44524008 932.5
-1.0449737 -0.8102361 -0.20595728 1228
-3.4192047 -1.0855321 -0.44678813 876
-0.88132322 -0.9811933 -0.24070899 1213
-3.4037857 -1.2027782 -0.44759387 963.5
-0.85707057 -0.99163938 -0.23580657 1290
-3.3885531 -1.2747172 -0.44725221 338
-0.094671726 -1.4758768 -0.13579069 1426.5
0.083791018 -1.6020871 -0.12651938 1225
-1.4048146 -1.8626686 -0.23025863 869
-1.4258641 -1.8539001 -0.23312087 980
-1.3461972 -2.0979238 -0.24176718 1606
-2.8492618 -2.2703671 -0.40250385 780
-0.13715887 -2.0546517 -0.18397 1118
-2.851932 -2.323544 -0.40609553 863.5
-0.28810477 -2.6011505 -0.18094914 1010.5
-0.10069847 -2.6485014 -0.12555043 982
-0.26691437 -2.6516743 -0.22410551 829
-0.1336534 -2.7385211 -0.21972024 767.66669
-2.7822161 -3.2848926 -0.33117378 693
-2.7623057 -3.3542738 -0.33269367 904
-2.7716689 -3.3189096 -0.33180723 1018
-2.6158648 -3.4601264 -0.32029548 702.5
-0.079349518 -3.3053341 -0.2088096 1130
-0.73117912 -3.3678317 -0.19252875 728
-0.062682152 -3.3277397 -0.21000011 925
-0.23968101 -3.3920827 -0.14168496 874
-2.5361614 -3.6337557 -0.3211816 468
-0.067983985 -3.6400924 -0.15166943 584.66669
0.22438145 -3.7488809 -0.13721175 773
0.1782614 -3.7278147 -0.13886736 564.5
-0.82276118 -4.4921541 -0.19421317 382
-0.80535543 -4.5326586 -0.19591764 310
-0.80138147 -4.6082559 -0.20184647 490
-0.84213531 -4.8016753 -0.22188145 308
0.44529438 0.7705164 0.0044410438 135.76923
0.37822914 0.75988644 0.001134614 155.25
0.30049491 0.74085343 0.0022381579 184
0.18264949 0.73023331 -0.011279197 235
0.035606861 0.71865255 -0.031191794 371
-0.21022463 0.70238763 -0.041123897 828
-0.44183385 0.66446555 -0.065637223 355
0.35805595 0.715572 -0.010466965 668.82758
0.26898861 0.68663502 -0.022344209 958.97296
0.17338014 0.67831695 -0.027148554 1073.4445
0.073044777 0.66677487 -0.034533046 1322.7894
-0.030384183 0.65845633 -0.037969328 1220.579
-0.13227725 0.63835597 -0.046068404 1274.5834
-0.23678398 0.65337545 -0.048606351 1172.7778
-0.29182196 0.60273206 -0.057379201 1161.2858
-0.4301275 0.60448122 -0.058806814 1090.8
-0.61555398 0.58918589 -0.065006562 770
-3.5396833 0.29479897 -0.33747846 1231.5
0.26170194 0.58322835 -0.032229651 694.42108
0.18886423 0.58530295 -0.035063989 781.2381
0.088015318 0.57268757 -0.041099306 937.77271
-0.01559186 0.55571437 -0.045957953 926.79999
-0.096726894 0.53955376 -0.047709037 907.40002
-0.19671905 0.5217005 -0.057731219 1060
-0.31684494 0.5529865 -0.061635375 1039.6
-0.38038933 0.50517076 -0.078155041 1560.875
-0.48154795 0.50921929 -0.068176128 1116.6364
-3.5288024 0.19436769 -0.33527964 1563
0.24371362 0.52236223 -0.030838707 648.66669
0.19625175 0.47366977 -0.03256676 698.69696
0.092168808 0.46788001 -0.03937199 887.6875
-0.0052535534 0.45845395 -0.048319038 968
-0.10210943 0.45200783 -0.053376541 926.57141
-0.2247324 0.43278652 -0.061856262 1076.1
-0.36943066 0.41347271 -0.070865229 1287.5454
-0.47587192 0.40759179 -0.062789463 997.11108
-3.5243087 0.1085718 -0.33431241 1615.6666
-3.5217037 0.051395237 -0.33380622 1527
0.19719028 0.38610026 -0.032943234 650.04547
0.1153475 0.36601579 -0.038653135 784.23077
-0.0077697039 0.36291558 -0.051390857 945
-0.09451592 0.34143278 -0.068800189 1003.5
-0.20294368 0.34248626 -0.073702112 1182.2307
-0.2608999 0.35593987 -0.070733078 1251.6
-0.36648023 0.31586531 -0.06716276 1266.1
-0.47912776 0.31409341 -0.061473317 1007.8889
-0.57190287 0.28768569 -0.087040208 1207
-3.5133476 -0.0054657757 -0.33248764 1435
0.1928525 0.26755288 -0.033346679 629.07141
0.10388851 0.26755425 -0.037001111 789.03229
-0.0080457926 0.25144008 -0.04213107 895.9375
-0.10536408 0.24187095 -0.047075894 883.30768
-0.20140183 0.23545666 -0.048663463 999.53845
-0.35310233 0.21959059 -0.061849035 1241.4546
-0.47946608 0.20505947 -0.060439676 1035.7
-0.96531594 0.14340048 -0.092694961 1290.4
-3.5083609 -0.062414676 -0.3317464 1345
-3.509521 -0.091115296 -0.33196932 1206
0.19999111 0.17606053 -0.029575607 653
0.12122345 0.17128378 -0.033220027 754.5
0.024183035 0.15714392 -0.039356846 916.8421
-0.088707328 0.14408909 -0.045702826 912.0769
-0.19056118 0.13431245 -0.053089458 1041
-0.24461401 0.09524937 -0.074961461 1283.6666
-0.35094607 0.11926198 -0.061549097 1069.4546
-0.48501289 0.10566078 -0.062418334 912.75
-0.56888211 0.094649717 -0.085993111 1089
-0.6493305 0.099567115 -0.1085029 1363
-0.77064693 0.086074561 -0.095648184 1253.5
-0.83427823 0.026910663 -0.11257353 1289
-0.95075834 0.054377452 -0.089797921 1768
-3.4936934 -0.20442849 -0.32985812 1001
-3.4991398 -0.17625943 -0.33059174 1100
0.21102858 0.074493259 -0.028138036 663.5
0.13316119 0.068446681 -0.030669464 764.35999
0.027177691 0.05707188 -0.038620535 923.38098
-0.087287307 0.046757191 -0.043243766 866.15387
-0.18666971 0.036915615 -0.046215594 969.33331
-0.30869687 0.015616566 -0.05075106 918
-0.31996107 0.023911387 -0.05401022 983.5
-0.50327933 -0.027115494 -0.070079282 1216
-0.51577961 0.022306085 -0.072342649 1434.5
-0.95824969 -0.04328382 -0.092799857 1501.5
-3.4904284 -0.31897777 -0.32996613 1077.6666
0.23267365 -0.022562504 -0.025979685 650.29413
0.13889694 -0.031407088 -0.030476483 785.46875
0.025000334 -0.042585403 -0.036142286 929.73334
-0.067124248 -0.052643329 -0.04104298 867.5
-0.16324878 -0.06206879 -0.042804766 960.9231
-0.29194641 -0.080719173 -0.049399856 959.44446
-0.31517935 -0.035226822 -0.054452099 998.5
-0.4719981 -0.097921938 -0.063813604 997.54547
-0.94610631 -0.10660374 -0.091210194 1259
-3.4684725 -0.43129474 -0.32743177 668
-3.4800901 -0.3896476 -0.32887605 1260.5
0.25158644 -0.128104 -0.023885967 661.11536
0.15346217 -0.12331587 -0.030801287 809.15387
0.039394021 -0.1415934 -0.039058834 959
-0.036364675 -0.15309113 -0.039909955 876.35712
-0.14173436 -0.16108912 -0.042111635 957.83331
-0.27507389 -0.1776084 -0.04965321 963.40002
-0.29738736 -0.15592325 -0.054976862 1094.5
-0.42426288 -0.18629703 -0.054611564 821.75
-0.53546631 -0.25155902 -0.088419147 1058
-3.4720292 -0.53310049 -0.32897729 1391
0.32241321 -0.25611943 -0.022534681 664.66669
0.26933932 -0.21631026 -0.023641868 721.48486
0.16883123 -0.23017257 -0.029302934 906.1875
0.083099961 -0.23570001 -0.033691052 979.20001
-0.015953183 -0.25497907 -0.038484231 902.35712
-0.12230408 -0.25722182 -0.046704277 1008.25
-0.2551825 -0.2676667 -0.05421621 1076.4445
-0.30629086 -0.31851053 -0.068950802 1318.5
-0.42489302 -0.28551757 -0.060482427 875.42859
-0.52701342 -0.26012379 -0.086598076 1059
-0.58462131 -0.33331084 -0.062252536 1048
-0.72605336 -0.32350409 -0.096666865 1283.5
-0.88731492 -0.37043279 -0.086525135 1004.5
-3.4648328 -0.60459137 -0.32869908 1411.6666
0.3610419 -0.3093223 -0.018640671 655.59998
0.28231049 -0.32702893 -0.022695003 813.43475
0.17791724 -0.32895172 -0.028290337 951.5
0.067747355 -0.33497232 -0.032787289 968.35297
-0.045801044 -0.34915882 -0.036114037 971.92859
-0.085841298 -0.31347966 -0.038013484 970
-0.20565224 -0.36589128 -0.04420232 1029.6666
-0.29419613 -0.32883668 -0.066294529 1225
-0.45578659 -0.37244117 -0.074674442 1111.6666
-0.47114289 -0.38564336 -0.079722933 1226
-1.0089544 -0.48579353 -0.11889732 1434.3334
-3.4536223 -0.70475638 -0.32831237 1263
0.45348418 -0.42889875 -0.013996633 665.88892
0.38278413 -0.40545022 -0.018369511 712.33331
0.27959955 -0.40828955 -0.023285739 914.70587
0.193138 -0.42938048 -0.025670519 975.82355
0.088545918 -0.43758881 -0.03112069 898.46667
-0.015229583 -0.45040023 -0.033084001 975.42859
-0.14515603 -0.47996622 -0.039059263 1057.1428
-0.17087531 -0.43322742 -0.041050002 1038.8
-0.29727519 -0.49099678 -0.04296457 868.75
-0.74732459 -0.47711354 -0.11064628 1695
-0.93412483 -0.53880119 -0.10510954 1378.5
-1.015304 -0.54741138 -0.1379185 1628.5
-3.4414611 -0.80507517 -0.32797834 1270
0.56114221 -0.52746856 -0.0079556536 676.66669
0.49325275 -0.50063455 -0.012266979 716.96429
0.39413667 -0.50799453 -0.017543655 822.45453
0.29854095 -0.51158148 -0.024683494 940
0.19306207 -0.52940607 -0.031285018 965.21429
0.11121166 -0.52392972 -0.029909099 902.75
0.028111935 -0.53892052 -0.033013847 999.79999
-0.11132276 -0.55871606 -0.039374471 1013.6667
-0.26882839 -0.5588522 -0.042379044 815.57141
-0.51355851 -0.573789 -0.061504789 1062.5
-0.97393334 -0.6505444 -0.12023971 1651.7142
-1.0484697 -0.65228808 -0.19520169 1653.2
-3.4326811 -0.90670085 -0.32839754 1289.5
0.68116713 -0.61194742 -0.0029843445 656.09088
0.60321474 -0.58543688 -0.0065747187 685.32001
0.50890625 -0.5966391 -0.0134448 775.54999
0.41108668 -0.60424942 -0.017940694 919.27777
0.31956744 -0.6073252 -0.023186859 993.46667
0.21625161 -0.63087761 -0.02963418 938.25
0.09518528 -0.6361956 -0.039010528 1055.1428
-0.036743164 -0.69935721 -0.039145995 1035
-0.056923032 -0.64656389 -0.036761656 981.45453
-0.21372366 -0.67257392 -0.041288894 788
-0.25881898 -0.65713179 -0.050510924 863.5
-0.39314568 -0.72841609 -0.047558378 836
-0.75883234 -0.69977444 -0.07714764 860
-0.91137922 -0.75191677 -0.11327974 1358
-0.96313417 -0.73007154 -0.12290577 1641.5
-3.4261942 -1.0096732 -0.32938713 1138
1.2435368 -0.6550504 0.061344814 91.5
0.88807195 -0.7027036 0.0060927849 689.28571
0.8136586 -0.67750859 0.0023523199 651.25
0.72133958 -0.6796186 -0.0014164378 683.39288
0.61661732 -0.67805803 -0.0067543569 760.73682
0.51615953 -0.6859076 -0.013457417 927.36841
0.42090809 -0.70147347 -0.018258492 967.6875
0.30924368 -0.72124255 -0.021825695 860.625
0.19205213 -0.74417686 -0.027639309 984.66669
0.14193833 -0.71162885 -0.030865373 1028.5
0.0050994158 -0.75052965 -0.054925915 1202.5625
-0.082992554 -0.79382801 -0.084580533 1693.5
-0.16926849 -0.76413584 -0.041927367 862.72729
-0.34333241 -0.80744231 -0.044618338 826.5
-0.57352889 -0.8066231 -0.096063562 1165.5
-0.69094884 -0.79430175 -0.069853634 912
-3.42308 -1.0841489 -0.33046982 1002.5
1.4801753 -0.72325373 0.044208214 630
1.2139719 -0.72554541 0.032856334 349.63635
1.1132807 -0.76842904 0.0057386616 715.61536
1.0216476 -0.74078476 0.0087242993 669.61108
0.92915225 -0.7560575 0.0072750361 735.65515
0.81437194 -0.75535345 0.0038800365 770.38098
0.72599012 -0.78197432 -0.0018712636 820.27777
0.62299204 -0.78217304 -0.0089192148 905.78949
0.529199 -0.78283608 -0.013525737 935.6875
0.41968107 -0.81635332 -0.017106073 893.8125
0.32637918 -0.82167816 -0.020992111 904.28571
0.24878788 -0.80982983 -0.023442905 981.61536
0.10375452 -0.85380614 -0.030131591 985.36365
0.061137438 -0.80644214 -0.03197208 986
-0.076579452 -0.86857688 -0.039226089 907.33331
-0.16688037 -0.86896622 -0.062028445 1436.3334
-0.30190766 -0.8724581 -0.042810898 888.25
-0.33365285 -0.85280716 -0.047450576 946.33331
-0.75202549 -0.9146688 -0.11050136 1445.3334
-3.4126701 -1.1875715 -0.33123952 1391.3334
1.2008997 -0.80844271 0.0073981239 707.25
1.13319 -0.82701015 0.0036084685 799.125
1.0237039 -0.83204508 0.0065380428 777
0.93396151 -0.86167085 0.0054724994 844.625
0.83129758 -0.85190725 0.0017570907 852.58826
0.73725992 -0.8861326 -0.0023320313 846.59998
0.64085948 -0.87708318 -0.0072209067 850.53845
0.53511226 -0.89305139 -0.011610288 866.9375
0.43741596 -0.90429163 -0.017620124 922.5
0.34924114 -0.91247535 -0.022479648 978.38464
0.20814431 -0.96338511 -0.027004628 985.83331
0.1655947 -0.91416478 -0.026992632 952
0.0064569712 -0.97727323 -0.033068176 858.5
-0.028527737 -0.94136143 -0.035018843 861.75
-0.19613457 -0.98445845 -0.034110133 769
-0.2487216 -0.9574188 -0.041615896 1019.875
1.2048782 -0.95214033 -0.0039274343 661.66669
1.1482151 -0.92917621 -0.0044583953 1035.421
1.0453773 -0.94654298 0.0047512846 918
0.94369012 -0.95318663 0.0055600428 871.06665
0.84771007 -0.93719637 0.0014943196 858.08331
0.74533635 -0.99176252 -0.0014986424 803.42859
0.65619528 -0.95307863 -0.0050439495 815.27271
0.53247285 -1.0241431 -0.012359383 884.5
0.44988883 -0.98178482 -0.01764264 951.25
0.32560503 -1.0517474 -0.020796703 909.33331
0.26632154 -1.0082158 -0.023733798 921.59998
0.011163473 -1.0174457 -0.038418271 890.75
-0.016334057 -1.0970254 -0.05680998 1089.5
-0.1671567 -1.0484241 -0.036565565 787.33331
-0.21693504 -1.0344529 -0.044724718 909
-0.43060672 -1.1384604 -0.050147898 1004
1.2203548 -1.0182552 0.0051245294 809.5
1.147835 -1.0372971 -0.00022371113 1107.0625
1.0595546 -1.0617712 0.0080901477 880.375
0.95205897 -1.0516523 0.007186098 803.76923
0.85259372 -1.0281523 0.0028446035 807.30768
0.73254293 -1.1185899 -0.004453341 922
0.65566516 -1.0799803 -0.0058738771 874.71429
0.58675456 -1.0471485 -0.0085975379 840
0.44769692 -1.1260597 -0.014340432 903.72729
0.37417459 -1.081102 -0.017773608 913.33331
0.11917925 -1.1372041 -0.036728002 930
0.051024795 -1.1490414 -0.051953528 1043.375
0.00018465519 -1.1359472 -0.059809968 1155
-0.17575645 -1.207539 -0.059842274 964
-0.22966063 -1.2042325 -0.069796093 1126.4
-0.37947714 -1.2122172 -0.048769422 961
-0.38891685 -1.2036272 -0.049536292 975
1.2191123 -1.1148487 0.0074784337 886.5
1.1657333 -1.109449 0.0065616108 995.09088
1.0336208 -1.1893883 0.0091908565 908.5
0.96539885 -1.1773127 0.0065860301 853.83331
0.86099285 -1.150847 0.0029992328 861
0.78272527 -1.1287081 -0.00047120824 882.66669
0.64908803 -1.2198007 -0.0041492297 831
0.56356311 -1.1840215 -0.0084483046 867.23077
0.50088871 -1.1538693 -0.011478666 904
0.38106477 -1.257123 -0.012710061 1229
0.31223476 -1.2569948 -0.023844784 736
0.18212783 -1.2509689 -0.045172639 922.14288
0.11989045 -1.2674547 -0.059343465 1080
-0.0098621845 -1.2812911 -0.039939623 816.5
-0.15109754 -1.2560614 -0.077877417 1130
-0.17691255 -1.2913183 -0.071892373 1135
-0.30619609 -1.3300706 -0.049368095 1005.5
-0.38153303 -1.3245571 -0.062029883 1182
1.2365053 -1.2251557 -0.0056556989 228
1.1638188 -1.2063897 0.025913633 732.89471
1.0852834 -1.2014891 0.0096987626 922.25
0.86528462 -1.3017837 0.0024612967 828.5
0.77556241 -1.2704548 6.0596969e-05 787.25
0.70078397 -1.2416699 -0.0023033628 835.59998
0.54017365 -1.336619 -0.0048007159 965
0.47642446 -1.3175558 -0.010057552 657.81818
0.37848771 -1.2887313 -0.019225225 1103.5
0.30253315 -1.2822323 -0.030208489 952
0.20821095 -1.3124326 -0.051751528 1010
-0.020993829 -1.3417904 -0.067318328 1121.6666
-0.16614115 -1.336239 -0.07637269 1223
-0.24450219 -1.3930638 -0.059204482 1092
-0.30536532 -1.3579087 -0.052632004 1051.3334
-0.39025533 -1.352959 -0.066913649 1459
-1.4180278 -1.5250435 -0.12775409 1214.3334
1.2068579 -1.3374343 0.019164698 754.66669
1.0763234 -1.3353192 0.012198558 778.66669
0.98178172 -1.3241622 0.007775811 792.45453
0.91567564 -1.3175781 0.0036321366 852.33331
0.67991823 -1.4049072 -0.0009731832 662.75
0.59246838 -1.3736705 -0.0053809225 685.90002
0.27099562 -1.4627273 -0.023292976 830.5
0.20836627 -1.438237 -0.044387084 1059
-0.0023940802 -1.4548221 -0.078795314 1277.3636
-0.11455333 -1.4568877 -0.046101641 873.25
-0.22694159 -1.4751114 -0.073207237 1266.7273
1.2210153 -1.4300731 -0.002216043 722
0.97126687 -1.489638 0.0098737255 697
0.89888871 -1.4754603 0.006770324 690.59998
0.79543799 -1.4599483 0.00020132167 681.59998
0.73136598 -1.4342004 -0.0011552949 664.33331
0.47789764 -1.5171996 -0.0042045382 668.66669
0.40432394 -1.5173707 -0.013906719 745.11108
0.32633638 -1.4947193 -0.020716826 823.20001
0.16798794 -1.5202304 -0.048431728 1092
0.097030759 -1.5335628 -0.061721429 1384.3334
0.041873813 -1.5287882 -0.069779187 1409
-0.11840963 -1.5750694 -0.067341439 1265.1666
-0.16914475 -1.5769538 -0.068555422 1395
-0.49898803 -1.6105205 -0.056916092 806.25
-0.55188715 -1.5850525 -0.062569849 876
-1.4024428 -1.7084354 -0.21668212 873
1.102705 -1.5470005 0.0068849539 807.22223
1.0229126 -1.5095278 0.0095367581 731
0.70178258 -1.6225528 0.002498308 702
0.60119569 -1.6032677 -0.0048751463 754
0.51845694 -1.5758424 -0.0096383989 757.71429
0.17567766 -1.6784039 -0.021114994 743.5
0.13639486 -1.6647793 -0.024512861 775.33331
0.022436857 -1.6583805 -0.039810371 987.75
-0.067739487 -1.6386596 -0.050424561 1107
-0.40957892 -1.6887839 -0.051491939 781.66669
0.98744255 -1.6989619 0.013413778 637.5
0.92458266 -1.6920344 0.009854665 694.5
0.82012242 -1.6655371 0.0059334873 692.88892
0.72603512 -1.6481531 0.00019125361 740.83331
0.65154207 -1.6414927 -0.0062692859 780
0.34144175 -1.7534312 -0.011021322 696.83331
0.23012686 -1.716013 -0.019451732 737
0.072281599 -1.7207271 -0.041554403 989
0.05390656 -1.7263211 -0.044952363 1104
-0.2181797 -1.815694 -0.037958447 779
-0.27017558 -1.7857367 -0.041861024 788.57141
-0.3742944 -1.7625135 -0.054340571 852.5
-0.66307604 -1.7793816 -0.099997051 1110
-1.2295171 -1.8938757 -0.20327184 902.33331
1.1083977 -1.7702795 0.0080062579 807.75
1.0335685 -1.7268554 0.011405131 698.33331
0.90884209 -1.71589 0.0041530444 746
0.5161469 -1.8359956 -0.0037667458 749.79999
0.43024528 -1.7952505 -0.0069752666 714
-0.16596162 -1.8591944 -0.035903346 747.875
-1.2164868 -1.9347757 -0.20488122 966
-2.8895736 -2.1222887 -0.28584534 779
-3.0297723 -2.1533403 -0.30710867 571
-3.1164913 -2.151576 -0.31939659 587
-3.1984382 -2.1628389 -0.33157757 512
-3.3109207 -2.1544547 -0.34736145 182
1.1363425 -1.8106073 0.0021130904 934
0.74111742 -1.9143103 0.0058793807 723.57141
0.63857722 -1.8781437 0.0020874711 722.77777
0.55283189 -1.8747004 -0.0059899692 805.66669
-0.081696987 -2.0035744 -0.042119216 945
1.041328 -1.9882251 0.017165652 668
0.92629498 -1.9837617 0.0097989067 712.5
0.84743339 -1.9608725 0.0073725134 726.875
0.77749777 -1.9273146 0.0070101116 723
0.067728758 -2.0488882 -0.029119996 657.66669
-0.079064488 -2.0319018 -0.045260262 902
-0.90823567 -2.1143756 -0.17302378 977
-2.8649859 -2.361701 -0.29320505 992
1.2412524 -2.0496879 0.018736294 694
1.1572256 -2.0209274 0.018887645 722.25
1.0599148 -2.0352025 0.024682896 637.625
0.97808713 -2.0300803 0.0059774765 789.75
0.34017813 -2.150351 -0.011494569 639
0.26188731 -2.1192417 -0.015819075 636
0.16419554 -2.1375222 -0.029134909 755.20001
-0.13545847 -2.1750407 -0.070094131 1161
-2.858202 -2.4451828 -0.29624426 999.5
1.2854888 -2.1729932 0.00075224601 33
1.1059935 -2.1749916 0.048902094 292
0.55880952 -2.2356195 -0.0014363592 629.20001
0.46932876 -2.199718 -0.0050526713 665
0.37718165 -2.1862335 -0.012441503 664
0.038449168 -2.2527103 -0.058536679 1159
0.016582131 -2.2407861 -0.059606507 1144
-2.8428617 -2.5421915 -0.29887056 866.33331
0.7934218 -2.3206849 0.0068322103 570
0.67943138 -2.2909055 0.0016432379 600.5
0.59810543 -2.2592263 -0.001074696 614
1.2717882 -2.3530507 0.033312809 498.5
1.1620073 -2.3807817 0.0234774 562
1.101107 -2.3660941 0.02187928 500
0.98787916 -2.3584671 0.015723271 539.5
0.88548416 -2.3482132 0.0099692615 576.14288
0.77894664 -2.3417997 0.0027830955 618.5
-0.052699804 -2.4755983 -0.024758821 516
-0.10105801 -2.4955769 -0.032087918 584
-0.1888634 -2.524766 -0.044803303 634.33331
-0.27840626 -2.4824538 -0.0506 584
-2.8250923 -2.7141137 -0.30517948 972
-2.8349981 -2.7786579 -0.30991018 496
1.2498523 -2.3839898 0.027864709 557
1.2106365 -2.400887 0.023394231 606.5
0.009775877 -2.5627284 -0.027375801 563.20001
-0.053064942 -2.5466518 -0.032278422 560.5
-0.21467042 -2.5543704 -0.076414615 760.66669
-0.28561783 -2.5697913 -0.13798214 1006.5
-2.8065977 -2.8338766 -0.30900851 703
0.38169503 -2.659317 -0.0018651672 387
0.31875575 -2.6548662 -0.0071004475 432.79999
0.1983099 -2.6054935 -0.01302341 406.5
0.096457005 -2.6202693 -0.02467561 486.25
-2.817811 -2.9811521 -0.31853616 581
0.49889624 -2.7219005 0.0013261852 364
-2.7981491 -3.0053635 -0.31725699 850
0.70822406 -2.8239608 0.006546766 385
0.63339889 -2.8157568 0.0016925454 372.39999
0.53846776 -2.7600899 0.0003395956 393
1.025991 -2.8773227 0.022543844 362
0.93089753 -2.8796706 0.016064677 350.79999
0.82905942 -2.8447132 0.013043374 388.25
0.76315707 -2.8399882 0.0088227931 364.33334
1.0490932 -2.9136133 0.019818237 336.25
0.98653275 -2.9175677 0.015401317 315
-0.55427611 -3.2163315 -0.063101552 363
-0.61661375 -3.2362709 -0.071059458 436.66666
-0.69832242 -3.2394686 -0.079742849 455
0.13824368 -3.2661495 -0.091209643 615
-0.05157423 -3.2393322 -0.10636036 790
-0.087562442 -3.2945938 -0.024785988 486
-0.22235644 -3.3302245 -0.040191874 371
0.47737134 -3.3533974 0.017309118 421
0.36065292 -3.3689065 0.0068484247 618
0.2673533 -3.3732548 -0.0010428121 1864.3334
0.17807162 -3.3873477 -0.0096566696 1426.6666
-0.076357007 -3.3331046 -0.027057027 745
-0.20230699 -3.3430972 -0.03941194 321
0.45000303 -3.3797121 0.012875667 691
0.40474594 -3.3773017 0.009573712 877.33331
0.31984103 -3.3981686 0.0010151146 1000.5
0.19205105 -3.3945332 -0.0091064833 1520
0.08217442 -3.4477372 -0.023013024 744.66669
0.021267653 -3.4904375 -0.031946216 713
-0.068713427 -3.4609408 -0.037309356 440.33334
-0.024436831 -3.5607681 -0.041987225 998
-0.050170064 -3.5621948 -0.0443611 896
0.58236194 -3.5689998 0.0059552887 156
0.53531659 -3.5666032 0.0027040662 152.66667
1.3327684 -3.6450787 0.0468814 146.66667
1.2899576 -3.7406058 0.035931692 111
1.2293254 -3.7410207 0.032465704 114.5
-0.90018547 -4.1726794 -0.17546289 506
0.08243227 -4.8376904 -0.016942505 171
-2.7113461 -5.2351208 -0.28706765 107
0.27884662 -5.0127549 -0.014013689 100
0.14289212 -5.0345459 -0.025145574 134
0.086175442 -5.0693078 -0.031502344 215
1.2210848 -5.2954926 0.028288892 40
1.3911748 -5.3148527 0.036758196 42
0.13402081 -5.6963224 -0.068357922 798
-1.1849917 -5.7738976 -0.17636077 388
0.53494656 -5.7438722 -0.043860041 487.33334
0.42467797 -5.7402263 -0.051021278 421
0.32986903 -5.7566404 -0.058554649 513
0.23798835 -5.7474375 -0.06433259 346
0.064755797 -5.773356 -0.078269102 453
0.60628951 -5.7726488 -0.041017421 300
-0.16061318 -5.8502254 -0.099634372 117
0.62727785 -5.9806294 -0.053193118 671
0.42731667 -7.7740893 0.013545746 2123
0.3760308 -7.7955289 0.0094121797 2707
-0.027804136 -7.8362117 -0.018427882 4441
1.3571179 -7.7089825 0.072766468 2926
1.0654485 -7.7632174 0.053339161 4492
0.32291567 -7.8325477 0.0045153936 4154
0.24839735 -7.830255 -0.00017972058 4127
0.14844501 -7.8308005 -0.0066704075 4111.5
0.047729969 -7.835053 -0.013416152 4411.5
-0.081171274 -7.8566566 -0.022780344 4282
-0.1574893 -7.8589845 -0.02794666 4442
-0.33871019 -7.8768115 -0.040827058 2588
1.1144998 -7.8763242 0.051651798 1954
0.76734334 -7.8734908 0.030747492 3769
1.315501 -7.9779782 0.059365567 2850
1.1645491 -7.9381728 0.052102312 1232
0.68419749 -8.0434408 0.018684776 2875.5
0.58202457 -8.0533705 0.011923051 3476.5
0.50506437 -8.0620193 0.0067469166 4096
0.80746102 -8.1431093 0.022214837 1337
0.82944125 -9.1465626 -0.017373176 2101
1.692196 -9.1711283 0.032419629 874
1.5866541 -9.3660049 0.018456701 1341
1.4691758 -9.3699417 0.011526491 3442
1.2932801 -9.3916187 0.00038376125 1792
1.2343347 -9.3864679 -0.0028766454 760
0.99885941 -9.4002123 -0.017465845 1441
0.91056091 -9.3975849 -0.022688515 1148.5
1.6486253 -9.4208632 0.019766562 618
1.5290037 -9.3926125 0.014058022 2231
0.70496351 3.1074243 0.069189042 150.5
0.6067065 3.0992994 0.062638097 187.66667
0.52009964 3.0751462 0.058282521 129
0.89589798 3.0676694 0.086484298 130
0.83392739 3.0726309 0.081783168 151.5
1.4393718 2.9999533 0.12465516 164
0.6285491 2.2520757 0.043974385 123
1.126945 2.2144804 0.087749407 143.66667
0.99032921 2.1775966 0.084492184 146
0.6811735 2.1326725 0.066195719 77
1.430428 2.0685766 0.12378588 104
0.82003331 2.0984163 0.083320849 154
0.7503885 2.05866 0.083206892 102.5
1.0010703 1.9428575 0.078049071 125.5
-1.2464455 1.0951426 -0.062768437 169.5
-1.1644236 0.93126428 -0.041456155 226
-1.1555356 0.8751018 -0.037713703 298.5
-0.33603275 0.79840493 0.030549927 318.5
-3.2212162 0.54346538 -0.18187225 68
-3.4426246 0.50362289 -0.21020846 155
0.82186818 0.85666269 0.11007758 179.96875
0.74825424 0.83862454 0.10268677 171.14473
0.65233648 0.81698298 0.092598677 169.71605
0.56177199 0.79771239 0.073275857 153.075
0.45537627 0.79219478 0.060682815 148.81429
0.35426414 0.77242827 0.055356584 153.95082
0.26499867 0.75097054 0.049760137 171.37778
0.15745854 0.73687428 0.04060217 193.65517
0.055671453 0.72694373 0.031528905 214
-0.030325651 0.71607268 0.0320035 208.95238
-0.1271255 0.71151686 0.01846515 212
-0.23585618 0.71450502 0.01511935 225.66667
-0.3475045 0.71938908 0.0088653602 301.72726
-0.43764484 0.70100629 0.0048216558 367.92307
-0.54552782 0.67444074 -0.0023474814 448.71429
-0.6229161 0.66708982 -0.0078916401 271.60001
-0.72022927 0.65256655 -0.023474326 286.5
-0.83449495 0.64153433 -0.023036586 370.5
-1.8171974 0.56665844 -0.073727891 149
-2.8274598 0.44094679 -0.12988083 228
-3.409143 0.44565457 -0.20537584 143
0.59898579 0.76815522 0.057771254 132
0.22698665 0.73101729 0.0037552798 222
0.16263187 0.72212493 0.037455674 197.57143
0.10107684 0.70725584 -0.0081468467 203.25
-0.024569154 0.69964921 -0.018202689 221
-0.11902261 0.69059765 -0.013514087 213
-0.22867107 0.6760025 -0.025977967 750.5
-0.33134305 0.6618017 -0.0354212 845.20001
-0.53116381 0.61124134 -0.034495056 1052.25
-0.59406054 0.57878977 -0.030261824 1398.8334
-0.729509 0.55957007 0.000920441 1844
-0.82637084 0.55663574 -0.018689414 1384
-1.033723 0.53438473 -0.0058949334 2167
-1.0989522 0.50926995 -0.017028062 3384.6667
-2.1129637 0.44134712 -0.1177716 334
-3.1427326 0.32736799 -0.16995588 649
-3.2256188 0.30272344 -0.18056475 245
-3.4541245 0.27893239 -0.21009263 215
-0.5155369 0.51047075 -0.0014861515 2776.4614
-0.62654603 0.49136609 -0.063911684 958
-0.86144865 0.49659836 -0.024168273 213.75
-0.89227998 0.46316266 -0.02967084 289
-1.0161361 0.4582575 -0.05486032 380
-1.1236762 0.43921793 -0.03429012 3514.5
-1.1690623 0.39014316 -0.084921323 657
-2.1024394 0.38086268 -0.11551583 296
-3.4033518 0.20872799 -0.20316496 228.5
-0.52463257 0.4035486 0.0060401564 2373.2222
-0.63304865 0.39362538 -0.062697791 794
-0.68614423 0.36524218 -0.030188615 1319
-0.84443581 0.36588943 -0.066567086 1184
-0.88055813 0.3191244 -0.07416404 1127
-1.1208178 0.34547183 -0.018394638 4567.1431
-1.1908637 0.33472908 -0.088661209 782.42859
-3.3042192 0.10014601 -0.18990992 231.5
-3.4538584 0.13827679 -0.20944481 246
-0.52795017 0.26594532 -0.033624008 1456
-0.58875453 0.31535003 -0.03535844 1125.2222
-0.92625821 0.27087218 -0.084178351 1278.7142
-0.93864834 0.22050874 -0.086662315 1192
-1.1156367 0.24247961 -0.031904485 3242.1819
-1.2015547 0.24204431 -0.090043262 605
-3.2772093 0.0061527193 -0.18623009 269.66666
-3.3594642 0.05727981 -0.19697918 215
-0.49857461 0.2155422 -0.025779029 2130.375
-0.57666981 0.16275308 -0.04566155 441
-0.66370118 0.14334361 -0.067960799 856
-0.94532073 0.19506212 -0.088109791 1229.3334
-1.1011132 0.13931507 -0.027562896 3295.5
-1.1687726 0.13650568 -0.083015248 1081.25
-3.2434702 -0.0594998 -0.18181233 282
-0.57158172 0.064284995 0.018470895 3114.5
-0.6578294 0.08176069 -0.049960013 1402.125
-0.88439429 0.084347516 -0.074335814 982.75
-0.97192371 0.056394055 -0.042429645 3400
-1.0906392 0.064599231 -0.039225306 1194.5
-1.1244742 0.075550869 -0.074074931 1821.5
-1.5175985 0.01022923 -0.088780895 598
-3.217772 -0.15173712 -0.17854372 317
-0.53174746 -0.0046952963 -0.036204118 2636
-0.6422807 0.035119653 -0.063537814 1143
-1.0014991 -0.048216611 -0.050072305 4481.875
-1.1825277 -0.091653585 -0.029568085 283
-1.2503163 -0.071383268 -0.04147204 213
-1.4612554 -0.081430793 -0.079329945 419
-1.5684961 -0.060569853 -0.09836214 546
-3.2286644 -0.28778368 -0.1803003 237
-0.56971896 -0.10653976 -0.048569039 1675.5555
-0.85845506 -0.16154975 -0.072618611 926.79999
-0.94367015 -0.12088537 -0.073329225 2150.6667
-1.030053 -0.16007745 -0.057786524 3445.1667
-1.3642191 -0.14772782 -0.062714517 207
-1.4815813 -0.18160459 -0.084116839 331
-2.0522275 -0.25929052 -0.10785941 285.5
-3.1807046 -0.3626982 -0.17441352 218
-3.2073083 -0.38441354 -0.17796752 209.33333
-0.58577216 -0.20855469 -0.056438658 835.22223
-0.82622159 -0.23690164 -0.067661844 820.875
-1.034902 -0.25079751 -0.060905725 2225.7144
-3.346777 -0.52577943 -0.19681081 218
-3.3994303 -0.49187845 -0.2033736 353
-0.56996119 -0.31431514 -0.057662815 922.5
-0.58566248 -0.31051433 -0.06127622 989.5
-0.80104625 -0.32783234 -0.065470465 746.66669
-1.0483235 -0.34495473 -0.066344425 851.33331
-3.2217007 -0.56914639 -0.1810381 208.33333
-3.3109136 -0.60404468 -0.19279079 198
-0.54951346 -0.39031494 -0.034925282 1884.3334
-0.57904422 -0.42440748 -0.020930905 2158
-0.78926694 -0.38629466 -0.065393932 765
-0.99658453 -0.40711588 -0.0030665318 3347
-1.1205884 -0.46075511 -0.077608451 982.125
-1.4450351 -0.48990715 -0.083990894 512
-3.3338647 -0.69368768 -0.1965425 193.66667
-0.30390859 -0.44550896 -0.040498503 861
-0.98327386 -0.59074914 -0.0070158481 3911
-1.1203212 -0.56793141 -0.089132093 1266
-1.1925923 -0.5888446 -0.076724932 2387
-1.4535342 -0.6130994 -0.089154765 331
-3.1781664 -0.77220273 -0.17739488 180.66667
-3.3117776 -0.74601936 -0.19422583 215
-0.44053113 -0.60453039 -0.046970408 718.28571
-0.45502818 -0.56316698 -0.046851322 715
-1.1213828 -0.6853714 -0.064354599 3350.75
-1.1778158 -0.62601662 -0.041830063 4641.5
-3.1263351 -0.85699165 -0.17177927 205
-3.1369214 -0.90157664 -0.17370781 203
-3.2752781 -0.85189474 -0.1907409 180
-0.41071498 -0.67513734 -0.046486147 721.59998
-0.68548787 -0.71942025 -0.063043587 772
-1.1053246 -0.76406181 -0.067511991 3248.3076
-3.1394935 -0.98669064 -0.1752212 175
-3.2708888 -0.98048413 -0.19185364 208.5
1.2673128 -0.65272391 0.14399894 121.66666
1.2322508 -0.65613943 0.094573654 107.30769
-0.35649645 -0.77365279 -0.043978501 759.14288
-0.63113964 -0.78901756 -0.057000048 775
-0.66316402 -0.79307163 -0.063990355 831
-0.98336065 -0.84936047 -0.077336289 972.66669
-1.0977358 -0.83626902 -0.07758338 2182
-1.1618327 -0.88144791 -0.049916945 2487.25
-3.2950802 -1.1194061 -0.19699131 194
1.4323813 -0.69814688 0.14899258 82
1.2236439 -0.71475285 0.12755595 133.91837
-0.26309562 -0.88601935 -0.036066871 790.66669
-0.51107681 -0.93936396 -0.045683615 687.5
-0.56501448 -0.89384949 -0.052370947 715.88892
-0.91168058 -0.96680129 -0.071495213 898
-0.97736704 -0.96102583 -0.069780432 1543.6666
-1.0319799 -0.97339773 -0.03295017 3353.5
-1.154404 -1.01456 -0.055331726 1253
-1.2711705 -1.0033085 -0.074137673 820.33331
-1.3899323 -1.032979 -0.026399868 193.5
-3.2811251 -1.1447617 -0.19562846 232
-3.3776503 -1.205191 -0.20884021 227
1.1982906 -0.87592244 0.12848037 89
-0.2599535 -0.95629811 0.023621257 3763.5
-0.48697412 -0.99843788 -0.046624694 782.5
-0.86087334 -1.0220104 -0.057678714 1429.7142
-0.92564237 -1.0185874 -0.037753154 3210
-1.0501202 -1.0542655 -0.040358614 1303.5
-1.2803541 -1.0549036 -0.078282125 764
-1.3687519 -1.0703646 -0.024782557 234
1.2038605 -0.9616704 0.13729584 190
-0.38300288 -1.1022035 -0.037383568 967
-0.44729722 -1.0822443 -0.047442574 910.5
-0.84414351 -1.1398668 -0.071888365 841.125
-1.4019734 -1.1473998 -0.032636214 142
-0.33810842 -1.1969876 -0.039553866 885.42859
-0.54107225 -1.198009 -0.023706289 889.5
-0.75988972 -1.2694955 -0.067569017 765.66669
-0.80738819 -1.2270402 -0.072323509 787.25
-1.1876487 -1.2832072 -0.076001756 560
1.162436 -1.1812941 0.088477701 3993
-1.0940009 -1.4031273 -0.068782926 1330
-1.3405248 -1.4161177 -0.10860767 878
1.2148235 -1.2055706 0.10321405 1131.5
1.1817615 -1.1996176 0.099994116 2925.5833
-0.46050441 -1.4290622 0.024494063 3910.5
-0.4877528 -1.4393823 -0.0088704117 1313
-0.60198152 -1.4440565 -0.056718901 714
-1.0257701 -1.4672524 -0.062562838 2447.25
-1.2268552 -1.4572765 -0.093187772 1340
-1.3038119 -1.4902338 -0.1074513 1222
1.16593 -1.3214536 0.096203692 1017
-0.1355716 -1.4468158 0.0366599 1129.6
-0.45649445 -1.4600614 -0.034762155 641
-0.49898207 -1.4759676 -0.023879904 816
-0.58676755 -1.4914966 -0.058834881 804
-0.94792283 -1.5443687 -0.056175847 2345.5
-1.5732321 -1.5804361 -0.076144308 504
-0.20635855 -1.5662997 0.047404952 2869
-0.30781078 -1.6320134 0.028040284 2920
-0.43760574 -1.6132669 -0.047648508 752
-0.45134389 -1.6066363 -0.049066927 756
-0.58250773 -1.6135325 -0.00805589 1214
-0.95445073 -1.6399075 -0.064228646 1857.6666
-1.2589313 -1.6721389 -0.037932016 379
-1.5971071 -1.7453481 -0.087634884 298.33334
-2.9882503 -1.8335115 -0.17394975 591
-0.14058781 -1.715903 0.041806325 2151
-0.25664687 -1.6960948 0.028886577 3724
-0.39820611 -1.7131616 0.0086925142 2416.5
-0.89333069 -1.7657474 -0.064989612 722.5
-0.99353349 -1.7592 -0.079126656 1136.5
-3.1277766 -1.9527181 -0.19423206 430
-0.0098477602 -1.763213 0.03038525 2924.6001
-0.078997731 -1.7412621 0.039746661 3362.625
-0.21558285 -1.764865 0.027701832 1979.25
-0.24176729 -1.7382494 0.026882261 2376
-0.5728873 -1.793768 -0.022070773 390.33334
-0.64873683 -1.8329557 -0.03588514 442
-0.91150987 -1.8509058 -0.03864396 1191
-3.3559132 -2.1222525 -0.2267427 568
-0.048238754 -1.8482274 -0.018848194 455
-0.58761656 -1.8894035 -0.032466955 1369.3334
-0.77633059 -1.9282187 -0.06172663 808
-0.82038581 -1.9115781 -0.066476859 794.5
-0.95343816 -1.9045318 -0.01186773 1126
-1.0539719 -1.9541858 -0.027716646 969
-1.2136449 -2.0304441 -0.052811507 570
-1.4269606 -2.0340786 -0.080671698 284
-2.8954921 -2.1221766 -0.17099985 812
-3.028358 -2.1489644 -0.18781564 627
-3.1468301 -2.1477227 -0.20208813 684.5
-3.2703414 -2.1639585 -0.21752305 721
-3.3145785 -2.1528816 -0.22257616 785
-0.11011732 -1.9830095 0.019355377 3781
-0.9548105 -2.0835981 -0.023636453 1072.5
-1.0257822 -2.0903864 -0.032874446 1596
-1.1217879 -2.0503435 -0.042351782 518
-1.2994438 -2.0710626 -0.066315509 326.5
-1.4310642 -2.1522727 -0.088209808 401
-2.8858762 -2.2846642 -0.17499506 945
-0.1745851 -2.1178403 0.041936111 4255.3335
-2.8631887 -2.3391485 -0.17409684 965
1.2337576 -2.0422721 0.13053189 4222.8335
1.1437306 -2.0501356 0.12459905 3265.7144
1.091948 -2.0460978 0.066039175 571
-0.16737723 -2.1518831 0.028733049 2665
1.292323 -2.1662283 0.11941461 81
-0.38908494 -2.4424458 0.015564336 262
-0.081269383 -2.4858046 0.043604411 2606
-0.42301595 -2.4641938 0.010248329 398
-0.49347055 -2.5484061 -0.0038433406 138
-1.7343904 -2.6172514 -0.05570861 162
0.017526031 -2.8597836 0.021720232 218.66667
-0.77534926 -2.9466934 -0.065028489 369.33334
-0.83164012 -2.9302893 -0.069914304 469
-0.89119637 -3.041492 0.010018027 1328.6666
-0.96564782 -3.0270424 0.0035926513 1049.3334
-1.0544332 -3.0764809 -0.0077671339 500
-0.27103937 -3.0555568 -0.021886257 266.5
-0.45823634 -3.0945358 -0.043554753 269.5
-0.87814295 -3.1113086 0.0074143 687
-0.89396322 -3.1853428 0.0017863389 413
-1.1856724 -3.2305813 -0.028967744 407
-1.3471242 -3.2384996 -0.045443859 67
-0.88702834 -3.2217793 0.00041111372 185
-2.651648 -3.4658527 -0.19408359 459
-0.074484706 -3.3126397 0.067102268 2801
-0.21227336 -3.2382822 -0.031519938 244
-0.91544449 -3.3720222 -0.010712814 81
-1.3155457 -3.378221 -0.049697798 244
-1.4058686 -3.4392972 -0.061910108 911
-2.5810432 -3.5789809 -0.19146354 380
-0.098154187 -3.383451 0.060783479 774
-0.24187601 -3.437047 0.045568008 2555
-0.26598823 -3.4332819 0.043767232 680
-2.567893 -3.6360402 -0.192655 432
0.091732025 -3.4392381 0.072546653 1893.5
-0.20865786 -3.4866595 0.045305371 1208.6666
-1.0384482 -3.5367398 -0.031584591 77
0.088228226 -3.5882349 0.062900089 723
0.02887857 -3.5321808 0.061764177 1038
-0.12520742 -3.6212769 0.043860652 437
-2.5534964 -3.8401232 -0.20063996 385
-0.023765683 -3.6267967 0.051666643 1798
-0.083406806 -3.6537051 0.045216661 2581
0.21366811 -3.7461567 0.06248543 1867.25
0.11581838 -3.7268214 0.056277599 549.5
0.12372363 -5.6988578 0.077774413 3130
-0.56697929 -5.715456 0.029082915 3498
0.073975921 -5.7713795 0.071517408 2051
-0.55493581 -5.8142743 0.026079075 466
-0.81201065 -5.8646545 0.0054796524 916
-0.87245786 -5.8607984 0.001185013 1324.5
-0.99177444 -5.8461747 -0.007092318 2176.5
-0.75607049 -5.950459 0.0062299874 158
0.62007356 -5.9427404 0.10022279 2620
-0.69197118 -6.0129428 0.0084477141 187
1.816664 -14.399389 0.18973342 795
1.9506949 -15.204528 0.18474013 3483
-1.0370961 -16.298281 -0.012992337 2397
0.46276081 2.9548697 0.15759011 101.33334
0.52134883 2.1778708 0.19542675 152
-0.78553903 1.7675823 0.030274564 127
-3.6127481 0.793706 -0.11813705 140.5
-1.1413938 0.85237366 0.042911094 371.33334
-3.5726695 0.57054257 -0.1119419 203.33333
-3.5611444 0.48310113 -0.11007828 319.66666
0.81338125 0.83319968 0.17538692 218.7037
0.75016737 0.81802326 0.18498845 215.10527
0.64866638 0.80358076 0.18386845 196.05882
0.55396724 0.78553075 0.16498385 173.57143
0.44671464 0.7735095 0.15188546 149.16216
0.35387576 0.76221257 0.1317413 162.5238
0.2591542 0.73886913 0.11921929 178.36363
0.17342675 0.72715294 0.1015176 199.66667
0.053655624 0.71990573 0.10759771 202.11111
-0.037383437 0.71727514 0.10721572 194
-0.13158429 0.71796238 0.12818819 203.22223
-0.25073743 0.72214234 0.12630168 203.60001
-0.34510458 0.67759514 0.10494679 253.83333
-0.42751968 0.66924804 0.057578079 228.5
-0.58143222 0.67470342 0.091979176 442.5
-0.63011515 0.66617012 0.084174827 334.75
-0.74201238 0.64765096 0.069802895 280.85715
-0.79032171 0.63811874 0.034718025 249
-2.7363768 0.48342139 -0.11844587 56
0.54900134 0.76041973 0.2110036 176.05556
0.45925462 0.75139469 0.18697557 142.14999
0.35534501 0.74052811 0.18183313 149.16129
0.25139999 0.72719377 0.16201423 171.125
0.1546973 0.71357524 0.15091057 173.77272
0.056446552 0.7086637 0.15486203 181.21428
-0.015500307 0.70207953 0.1552937 173.39999
-0.15297329 0.6881268 0.12218475 156.5
-0.25272024 0.67971939 0.11733863 170.57143
-0.35496151 0.66547322 0.12937601 211.5
-0.408692 0.66392118 0.061576951 210
-0.62285793 0.57302618 0.08827737 2212
-0.73895824 0.57521582 0.071564369 1468
-0.81755936 0.54518247 0.044467989 1282.25
