# .PCD v0.7 - Point Cloud Data file format
VERSION 0.7
FIELDS x y z intensity
SIZE 4 4 4 4
TYPE F F F F
COUNT 1 1 1 1
WIDTH 1347
HEIGHT 1
VIEWPOINT 0 0 0 1 0 0 0
POINTS 1347
DATA ascii
-0.062349081 -10.787706 0.84969664 0
-4.5232229 -14.005283 0.99627036 0
7.2478342 -5.5674 0.64207345 0
-0.114254 -10.913225 0.87435544 0
-0.15161061 -10.971087 0.88602638 0
-4.27211 -13.98142 0.97463763 0
-4.3823771 -13.999839 0.98493415 0
7.3120213 -5.651453 0.65192711 0
-4.0628586 -13.96578 0.95754445 0
-4.170475 -13.98258 0.96725059 0
7.399106 -5.7408638 0.66487783 0
-3.8567383 -13.949334 0.9410181 0
-3.960546 -13.960724 0.94963789 0
7.4392567 -5.7982712 0.67127061 0
-3.724261 -13.947724 0.93162453 0
-3.7902007 -13.948076 0.93622637 0
7.5047598 -5.8866749 0.6816743 0
-3.5574784 -13.936871 0.91908389 0
-3.6538544 -13.932873 0.92514294 0
-3.3590307 -13.920942 0.90420061 0
-3.4594479 -13.934102 0.91224754 0
-3.1337357 -13.912718 0.88893282 0
-3.2238584 -13.894925 0.89258599 0
-2.9377842 -13.884829 0.87375522 0
-3.0334079 -13.891214 0.88029283 0
-2.7774501 -13.86475 0.86196744 0
-2.8724253 -13.872759 0.86846894 0
-5.674643 -1.7791008 1.140202 0
-7.5730095 -3.1762872 1.2501254 0
-7.5649176 -3.2223282 1.2466768 0
-7.5622263 -3.2673645 1.2445198 0
-7.5569248 -3.3570435 1.2404135 0
-7.5322638 -3.4487886 1.2320948 0
-7.5410867 -3.5138044 1.2322336 0
-7.5370598 -3.602154 1.2290139 0
-5.118269 -1.9808383 1.1807146 0
-7.5282211 -3.7125134 1.2244438 0
-7.5141463 -3.8008978 1.2194239 0
-7.5181856 -3.8441267 1.2195075 0
-4.8708558 -2.0729723 1.1021152 0
-7.5078115 -3.9316521 1.2156827 0
-7.4863057 -4.0193462 1.2095259 0
-7.5039291 -4.0834556 1.2126797 0
-7.4932957 -4.1702242 1.2093621 0
-7.479722 -4.2782459 1.2054579 0
-7.4819784 -4.3643875 1.2054968 0
-7.477407 -4.4289427 1.204271 0
-7.4626498 -4.5147171 1.20086 0
-7.4604115 -4.579113 1.200418 0
-7.4460573 -4.6429744 1.1973777 0
-7.4450226 -4.7288465 1.1975709 0
-7.4515591 -4.7938175 1.1994928 0
-7.4386606 -4.857482 1.1971655 0
-5.6286392 -4.7861824 1.1732996 0
-5.5124249 -4.8540916 1.1400012 0
-5.5635328 -4.8278379 1.1546776 0
-5.4326539 -4.8919287 1.1171265 0
-5.3267717 -4.9403372 1.0868871 0
0.76976371 -9.0615234 0.8861019 0
0.75101018 -9.1079493 0.89717531 0
0.71859086 -9.1646852 0.91044831 0
0.67792058 -9.2563982 0.93249339 0
0.64372778 -9.3146992 0.94635928 0
0.62468195 -9.3726168 0.96065813 0
0.60160291 -9.4151382 0.97095048 0
0.3408246 -9.9637327 0.8978833 0
0.29923081 -10.042616 0.9153989 0
0.27241278 -10.107822 0.92996573 0
0.2284174 -10.187689 0.94790089 0
0.1846149 -10.2795 0.96861535 0
-5.0776582 -14.050589 1.0452656 0
0.15556097 -10.35049 0.98468804 0
-4.855504 -14.038918 1.0259951 0
-4.9681759 -14.049242 1.0361897 0
-4.7737722 -14.015479 1.016959 0
-0.18799043 -11.063354 0.90423727 0
7.5740228 -5.9771633 0.69269896 0
7.6286407 -6.0402222 0.70124328 0
7.6948414 -6.1330118 0.71214426 0
-7.6850328 -1.6824169 1.3565779 0
-7.685915 -1.7323616 1.3531821 0
-7.6740313 -1.836283 1.3433774 0
-7.6611562 -1.9640484 1.3319743 0
-7.6548729 -2.063693 1.3241481 0
-7.654273 -2.13661 1.319422 0
-7.6468573 -2.2110188 1.313266 0
-7.6376562 -2.2855172 1.3068275 0
-7.6406107 -2.3322783 1.3047569 0
-7.6250572 -2.4075646 1.2971094 0
-7.6138582 -2.4811065 1.2906196 0
-7.6159468 -2.5506732 1.287389 0
-7.6100378 -2.6451516 1.2812661 0
-7.6128035 -2.7139311 1.2784963 0
-7.6080656 -2.7840505 1.2741437 0
-7.5865946 -2.8573289 1.2660599 0
-7.5872908 -2.9254737 1.2632396 0
-7.5849786 -3.0166202 1.2589283 0
-7.5731859 -3.1089356 1.2526796 0
-5.4061136 -1.872022 1.2724228 0
-3.7500491 -11.150677 1.1700187 0
0.5796411 -9.4650669 0.98322606 0
0.55612838 -9.5101728 0.99427676 0
0.52013385 -9.5792036 1.0112969 0
0.48449421 -9.6554623 1.0302955 0
0.44881761 -9.7393751 1.0514079 0
0.41068697 -9.8166046 1.0708629 0
0.12417054 -10.407133 0.99760479 0
0.094442368 -10.487251 1.015838 0
0.045438051 -10.578867 1.0369111 0
-0.0036005974 -10.688072 1.0620518 0
-0.037287712 -10.762714 1.0793122 0
-1.4013624 -13.758113 1.1178356 0
-1.2546349 -13.74568 1.1095062 0
-1.3427644 -13.755372 1.1148043 0
-1.0216379 -13.731048 1.0977823 0
-1.1385202 -13.747226 1.1049049 0
-0.81912947 -13.726162 1.0895226 0
-0.90586567 -13.728234 1.0929768 0
-0.67466021 -13.710806 1.0822412 0
-0.7605443 -13.693167 1.0824158 0
-0.44454336 -13.682315 1.0707394 0
-0.55940986 -13.6961 1.0763016 0
-0.24453497 -13.651316 1.0605084 0
-0.30107355 -13.681728 1.066653 0
-0.3582778 -13.693632 1.0700294 0
-0.12945223 -13.665041 1.0597788 0
-0.18646336 -13.674867 1.0626638 0
10.977007 -6.9651184 0.72893822 0
10.989918 -7.0795465 0.73275381 0
10.991505 -7.1918936 0.73561412 0
-7.7479658 -0.81243491 1.4405488 0
-7.7544279 -0.8918941 1.4348004 0
-7.743176 -1.0061364 1.4225006 0
-7.7343488 -1.0909891 1.413415 0
-7.7246828 -1.1487236 1.4065509 0
-7.7174625 -1.2576499 1.3960898 0
-7.7068343 -1.3927784 1.3830512 0
-7.6943722 -1.4752951 1.3740065 0
-7.7101226 -1.5204272 1.3738981 0
-7.6885777 -1.605227 1.3629869 0
-5.6642947 -1.7821136 1.3537679 0
0.38667846 -9.8814611 1.0873919 0
0.34534264 -9.9534788 1.1056814 0
0.30536509 -10.042552 1.1285303 0
0.27782559 -10.101967 1.1438428 0
0.24786043 -10.148066 1.1557328 0
0.22210383 -10.232091 1.1775837 0
-0.072170496 -10.83279 1.0956162 0
7.2714343 -5.5956392 0.92681396 0
-0.10762358 -10.907095 1.1129388 0
-0.14388061 -10.982875 1.1306651 0
7.3388872 -5.6805382 0.93999088 0
-0.18120575 -11.055371 1.1477281 0
7.3983622 -5.7405939 0.95128661 0
7.4302945 -5.7964249 0.95808452 0
7.5172195 -5.8888083 0.974935 0
-3.5473106 -13.939869 1.2780787 0
7.5956473 -5.9812026 0.99054128 0
-3.3471062 -13.917885 1.2595298 0
-3.4427199 -13.915564 1.2664334 0
-3.1157293 -13.886559 1.2378919 0
-3.2171168 -13.90967 1.2486731 0
-2.9268463 -13.884139 1.2242256 0
-2.9945385 -13.904028 1.2318867 0
-3.0567265 -13.901461 1.2358871 0
-2.7677491 -13.868792 1.2111504 0
-2.8644743 -13.88402 1.2199314 0
-2.5468302 -13.84343 1.1929841 0
-2.6419098 -13.857822 1.2012397 0
-2.3951867 -13.846443 1.1840194 0
-2.4853354 -13.84115 1.188776 0
-2.1797678 -13.825317 1.1680536 0
-2.2719476 -13.835331 1.1749499 0
-1.9359994 -13.796464 1.1501071 0
-2.0286744 -13.817602 1.15837 0
-2.1188796 -13.820316 1.1638187 0
-1.8469083 -13.795766 1.145283 0
-1.6087589 -13.780125 1.1309017 0
-1.7280347 -13.791711 1.1385617 0
-1.4904962 -13.772031 1.1240504 0
-7.6020107 -2.623306 1.5502778 0
-7.6066551 -2.6685674 1.5488214 0
-7.5886402 -2.7648742 1.5387977 0
-7.5923672 -2.9013987 1.5325395 0
-7.5846953 -3.0164557 1.5249089 0
-7.5728064 -3.1313639 1.5166199 0
-7.5659032 -3.2222104 1.5109652 0
-7.5620031 -3.2674844 1.5081332 0
-7.5512218 -3.3580143 1.5019054 0
-7.5372 -3.4925568 1.4936079 0
-7.5326247 -3.5811172 1.4896489 0
-7.5283189 -3.6254609 1.487245 0
-7.5244188 -3.713347 1.4838977 0
-7.5051098 -3.802237 1.4767064 0
-7.5190268 -3.8665295 1.4789785 0
-7.5018725 -3.954479 1.4728261 0
-7.49403 -4.0631456 1.4690802 0
-7.4792538 -4.1715765 1.4638805 0
-7.4789968 -4.2363024 1.4632061 0
-7.4819822 -4.3009667 1.4635357 0
-7.4758196 -4.3656154 1.4615906 0
-7.4688301 -4.4301233 1.4595835 0
-7.4529362 -4.5373263 1.4554327 0
-7.4393101 -4.6442232 1.4522343 0
-7.430398 -4.7296872 1.4504822 0
-7.4310045 -4.7941628 1.4512328 0
-7.4281015 -4.85849 1.4512171 0
0.19134402 -10.282233 1.1906457 0
0.14656901 -10.380653 1.2164203 0
-4.8390951 -14.028966 1.4026587 0
-4.9573169 -14.051851 1.417145 0
0.10028434 -10.47928 1.242375 0
0.051482201 -10.571547 1.2668335 0
-4.61833 -14.010086 1.3793756 0
-4.731276 -14.026466 1.3921678 0
-4.5142879 -14.012035 1.3701452 0
-4.2666969 -13.997236 1.3459514 0
-4.3687668 -13.99492 1.3546394 0
-4.0547252 -13.974722 1.3244457 0
-4.1562066 -13.97522 1.3332062 0
-3.8474441 -13.955082 1.3043058 0
-3.9122453 -13.950569 1.3090031 0
-3.985759 -13.969604 1.3178879 0
-3.7144084 -13.951813 1.2930309 0
-3.7845576 -13.964582 1.3005489 0
-3.6456978 -13.942091 1.2861326 0
7.6494117 -6.0441608 1.0013077 0
7.6971092 -6.1329908 1.012117 0
-7.7037363 -1.5210118 1.6579597 0
-7.6840477 -1.6051075 1.645703 0
-7.6838078 -1.6811535 1.639088 0
-7.6737895 -1.7600985 1.6299723 0
-7.6688871 -1.8366377 1.6224624 0
-7.6773834 -1.8832905 1.6208326 0
-7.6498175 -1.9664414 1.607404 0
-7.6470194 -2.06494 1.5991852 0
-7.6559458 -2.1349208 1.5962495 0
-7.6464071 -2.2100742 1.5884494 0
-7.6329584 -2.3334277 1.5765302 0
-7.6135106 -2.4334104 1.5649662 0
-7.624176 -2.4776349 1.5648512 0
-7.6114273 -2.5511582 1.5570322 0
-3.7434559 -11.155235 1.4466622 0
-5.0662394 -14.052103 1.4277148 0
0.0018801689 -10.671051 1.2933196 0
-0.048648834 -10.785028 1.3237685 0
-0.099994421 -10.915302 1.3586326 0
-0.13720608 -10.973585 1.3745103 0
-7.7017012 -1.3927891 1.6691053 0
-7.7095261 -1.4672942 1.6642057 0
7.2586002 -5.56916 1.2078485 0
7.329 -5.6541996 1.2244791 0
-0.17356682 -11.062393 1.3984548 0
7.3886852 -5.7387295 1.2391202 0
7.4613233 -5.8272185 1.2566196 0
7.5358801 -5.9175644 1.2747047 0
7.5773544 -5.9771128 1.2852174 0
-0.6358881 -13.712646 1.4186354 0
-0.4346509 -13.68386 1.4069479 0
-0.54944992 -13.693663 1.4122629 0
-0.23459959 -13.6548 1.3960655 0
-0.32012463 -13.670987 1.4013333 0
-0.14786339 -13.676694 1.3981524 0
10.995131 -6.9684443 1.1478385 0
10.998919 -7.0807734 1.1518244 0
10.994929 -7.1916733 1.1549407 0
7.6341963 -6.0405416 1.2989633 0
7.6978998 -6.1326227 1.3153896 0
-7.8389239 -0.40203512 -0.69850677 0
-7.8241124 -0.5165391 -0.69281286 0
-7.8237805 -0.61930132 -0.6882987 0
-7.8067832 -0.70614588 -0.68387938 0
-3.8462327 -2.7929387 -0.87546563 0
-4.2649083 -2.6547565 -0.86530393 0
-4.2948685 -2.681263 -0.86607397 0
-3.8978908 -2.8566134 -0.87328148 0
-3.9353435 -2.902997 -0.87205076 0
-4.3143911 -2.7103348 -0.86506039 0
-3.9668746 -2.9351332 -0.87247443 0
-4.4170017 -4.8315072 -0.86023057 0
-4.4278898 -4.7995176 -0.86120594 0
-4.4003649 -4.9035449 -0.86034673 0
-4.3600559 -5.0531831 -0.86111313 0
-4.381927 -4.9978428 -0.8621034 0
-3.9672241 -5.6061945 -0.83885574 0
-3.9959295 -5.5909958 -0.8422631 0
-1.7468798 -6.6524138 -0.91504729 0
-1.8095037 -6.6510105 -0.9105742 0
-7.8110161 -0.75336885 -0.68204594 0
-7.7990565 -0.83497798 -0.67814285 0
-7.802434 -0.93030488 -0.67436558 0
-7.7824249 -1.0618935 -0.66825366 0
-7.7925377 -1.008397 -0.67080355 0
-7.7786436 -1.1346533 -0.66524899 0
-5.4379444 -1.8921266 -0.68792832 0
-5.5470681 -1.84444 -0.69830728 0
-5.6228485 -1.8226271 -0.70476478 0
-7.7695417 -1.2555597 -0.66024399 0
-7.7508788 -1.4019833 -0.65401757 0
-7.7630653 -1.3504249 -0.65643138 0
-7.7411308 -1.4739741 -0.6510089 0
-3.0031877 -2.7854464 -0.76141465 0
-7.7427912 -1.5613215 -0.64802551 0
-7.7304802 -1.6975615 -0.64286256 0
-7.7417002 -1.6273811 -0.64571685 0
-7.7327399 -1.7819225 -0.64021635 0
-7.7165132 -1.8946079 -0.63591862 0
-7.7078977 -2.0021114 -0.63225543 0
-7.7032509 -2.1061666 -0.62901723 0
-7.6953874 -2.2102463 -0.62574255 0
-7.6812263 -2.334784 -0.62176502 0
-7.689456 -2.2723832 -0.62378812 0
-7.667635 -2.4180927 -0.61900294 0
-7.6656141 -2.5156012 -0.61656398 0
-7.6538677 -2.6533031 -0.61287475 0
-7.6778965 -2.5884559 -0.61550081 0
-7.6519957 -2.729389 -0.61117512 0
-7.6457272 -2.8247843 -0.60895884 0
-7.6236362 -2.9418125 -0.60566247 0
-3.6037917 -5.7770953 -0.8003661 0
-3.6667018 -5.7460818 -0.80571038 0
-3.7682667 -5.6949849 -0.80515981 0
-3.8550787 -5.6607294 -0.78892159 0
-3.9311757 -5.6226211 -0.77646369 0
-4.0003824 -5.5956812 -0.75966728 0
-3.1434677 -5.9945178 -0.77713394 0
-3.20996 -5.9680748 -0.77959383 0
-3.301671 -5.919889 -0.78156924 0
-3.3964725 -5.8714991 -0.7853291 0
-3.4826441 -5.8277378 -0.79000777 0
-3.5605454 -5.7979293 -0.79696721 0
-2.6687963 -6.2129588 -0.78781688 0
-2.7505333 -6.1821008 -0.78495896 0
-2.8401489 -6.1401415 -0.78105372 0
-2.9346302 -6.0949326 -0.77818602 0
-3.0296197 -6.0494056 -0.77684087 0
-3.1085706 -6.0158916 -0.77784026 0
-2.1405449 -6.4424524 -0.83994693 0
-2.2050054 -6.4332881 -0.83648497 0
-2.2906158 -6.3966966 -0.82606405 0
-2.3823483 -6.3554854 -0.81557095 0
-2.4708545 -6.3109369 -0.8054105 0
-2.5643768 -6.2707863 -0.79790223 0
-2.6238172 -6.2437854 -0.79341316 0
-1.7516228 -6.6479106 -0.8300457 0
-1.8296623 -6.6140199 -0.85847104 0
-1.9176645 -6.5763674 -0.87414557 0
-2.0159664 -6.5308056 -0.86766344 0
-2.0986896 -6.4896941 -0.85383147 0
-2.1880593 -6.4533968 -0.84215373 0
-2.6571493 -2.9188633 -0.70039624 0
-2.7272408 -2.8981488 -0.71047217 0
-2.8276005 -2.8565564 -0.70142519 0
-2.9222159 -2.821167 -0.71160251 0
-2.9798446 -2.8073347 -0.70800328 0
-2.478925 -2.9861505 -0.67359972 0
-2.5400989 -2.9660013 -0.68169439 0
-2.6039367 -2.9451172 -0.69051397 0
-0.74461472 -3.6338639 -0.73749089 0
-5.527452 -4.8719006 -0.61056185 0
-5.5920086 -4.8282104 -0.61543632 0
-5.6771336 -4.8001995 -0.62247151 0
-5.449522 -4.9046478 -0.60437536 0
-5.4789352 -4.8872218 -0.60659611 0
-3.6050172 -5.7699523 -0.6930266 0
-3.6757946 -5.7449007 -0.69422901 0
-3.757627 -5.7047243 -0.69690228 0
-3.8468258 -5.6627603 -0.66411573 0
-3.9406824 -5.6182475 -0.67125952 0
-3.9938893 -5.5938506 -0.67567283 0
-3.1153708 -5.99891 -0.70431322 0
-3.2078288 -5.9687524 -0.7078799 0
-3.2948561 -5.9243717 -0.70927179 0
-3.3868093 -5.8819013 -0.71266425 0
-3.4775736 -5.8341079 -0.71609026 0
-3.56691 -5.8030143 -0.69495153 0
-3.6388292 -5.7698951 -0.65192831 0
-2.6003098 -6.2357316 -0.71991014 0
-2.6785128 -6.2122035 -0.71779549 0
-2.7493625 -6.1852217 -0.71532685 0
-2.8367395 -6.1381364 -0.71028417 0
-2.9309838 -6.0927353 -0.70729446 0
-3.0180252 -6.0458055 -0.70469338 0
-3.1111004 -6.0135598 -0.70673919 0
-2.1142056 -6.4657063 -0.77095824 0
-2.1997726 -6.4369979 -0.76253414 0
-2.2886517 -6.3999524 -0.75300139 0
-2.380914 -6.36099 -0.74403888 0
-2.4689722 -6.3133507 -0.73412985 0
-2.5552762 -6.2692132 -0.72607696 0
-2.6431446 -6.2387266 -0.72221273 0
-1.674399 -6.6796999 -0.75896299 0
-1.7340837 -6.654952 -0.75040907 0
-1.8212304 -6.6137676 -0.7373687 0
-1.9224578 -6.5678372 -0.75958449 0
-2.0120728 -6.528419 -0.75044107 0
-2.0966923 -6.4902716 -0.74286187 0
-2.1515841 -6.4601831 -0.76880854 0
-1.7103484 -6.6759505 -0.75596613 0
-7.8462911 -0.39242744 -0.45157427 0
-7.8409848 -0.52680945 -0.44817591 0
-7.8414059 -0.47458589 -0.44946879 0
-7.8194156 -0.61803198 -0.44573081 0
-7.801466 -0.75549912 -0.44226211 0
-7.8155117 -0.69650733 -0.4438085 0
-7.8094745 -0.82466924 -0.44074449 0
-7.8026805 -0.9265393 -0.43834543 0
-7.7907047 -1.0297805 -0.43590859 0
-7.7800455 -1.1538589 -0.4331001 0
-5.4446778 -1.8841352 -0.53931135 0
-5.5453482 -1.8426801 -0.54500574 0
-5.6337309 -1.8117224 -0.54976249 0
-5.725234 -1.7970475 -0.55390251 0
-7.7631617 -1.2789814 -0.43026853 0
-7.7678924 -1.3674617 -0.4285357 0
-7.7556877 -1.4636186 -0.42647922 0
-2.5752077 -2.9427519 -0.57379633 0
-2.6557958 -2.9149055 -0.60547656 0
-2.7332716 -2.8911593 -0.61748707 0
-2.8095446 -2.8687007 -0.6072365 0
-2.9126513 -2.8213243 -0.6106562 0
-2.986758 -2.7946904 -0.61961347 0
-7.7497697 -1.5551509 -0.42464757 0
-1.7033322 -3.2669451 -0.6202054 0
-1.7886516 -3.2415931 -0.61847687 0
-1.8780349 -3.2097154 -0.61975563 0
-1.9704945 -3.173625 -0.62393218 0
-2.0677748 -3.1363561 -0.63015187 0
-2.1613116 -3.1070936 -0.61172265 0
-2.2539463 -3.0704811 -0.62047666 0
-2.3490076 -3.0330808 -0.63083106 0
-2.4394691 -2.9998589 -0.6356104 0
-2.5390925 -2.967819 -0.61795461 0
-2.6246827 -2.934942 -0.60881138 0
-2.724592 -2.9115324 -0.64572561 0
-7.7253609 -1.719036 -0.42129958 0
-7.7363701 -1.6490687 -0.42271912 0
-0.86683637 -3.5833592 -0.69529343 0
-0.9414413 -3.5575008 -0.67424577 0
-1.0343897 -3.5235398 -0.65709531 0
-1.1217639 -3.490412 -0.64771235 0
-1.2200387 -3.4556348 -0.65399957 0
-1.3130492 -3.4190536 -0.64311093 0
-1.4101293 -3.3818827 -0.6337043 0
-1.5064535 -3.3500104 -0.62545604 0
-1.5989505 -3.3142436 -0.62096769 0
-1.6920426 -3.2854335 -0.61684966 0
-1.7820642 -3.2527258 -0.6161415 0
-7.7257328 -1.7828586 -0.42018199 0
-0.76709378 -3.6253412 -0.69182146 0
-0.8404476 -3.6004972 -0.6857577 0
-0.93522161 -3.5718346 -0.66328847 0
-7.7193279 -1.8911295 -0.4182469 0
-7.703877 -2.0017672 -0.41621116 0
-7.7059593 -2.1031437 -0.41466773 0
-7.6822534 -2.2135806 -0.41266173 0
-7.6761117 -2.3350906 -0.41086441 0
-7.6812735 -2.2738059 -0.41178858 0
-7.6636434 -2.4180131 -0.40956593 0
-7.6449251 -2.5596881 -0.40750027 0
-7.6628008 -2.4959216 -0.40856802 0
-7.6525984 -2.6524858 -0.40656361 0
-7.65485 -2.594672 -0.40725523 0
-7.6487021 -2.7292912 -0.40566829 0
-7.6428151 -2.8246517 -0.40460613 0
-7.6233053 -2.941072 -0.4031899 0
-7.614295 -3.0530462 -0.4021011 0
-7.6239929 -3.1233754 -0.40173757 0
-5.5142241 -4.8713112 -0.48592302 0
-5.596386 -4.8261051 -0.48964944 0
-5.7124653 -4.782208 -0.49527362 0
-5.4507084 -4.9059434 -0.48309451 0
-5.4784021 -4.8882627 -0.48427999 0
-4.2493429 -5.4700933 -0.52441275 0
-4.291275 -5.4476066 -0.52643692 0
-3.5903211 -5.7748823 -0.59770489 0
-3.6626477 -5.7417026 -0.5760175 0
-3.7591252 -5.700933 -0.5807386 0
-3.849575 -5.658824 -0.58533669 0
-3.9450035 -5.6147795 -0.59080637 0
-3.1202388 -5.9978223 -0.60073471 0
-3.2031403 -5.9677353 -0.60210037 0
-3.2923138 -5.9211168 -0.60017419 0
-3.3835356 -5.8784952 -0.60633129 0
-3.4754982 -5.8361192 -0.60670769 0
-3.5610201 -5.7989702 -0.59167755 0
-2.6593158 -6.216331 -0.62135345 0
-2.7350016 -6.1875763 -0.62491274 0
-2.8338654 -6.1431098 -0.62966013 0
-2.9340813 -6.0917807 -0.61101979 0
-3.0212467 -6.0512967 -0.6006512 0
-3.1074533 -6.0141511 -0.60539031 0
-2.1983292 -6.4365993 -0.65839952 0
-2.2848251 -6.3990498 -0.6442638 0
-2.3767059 -6.357841 -0.63624543 0
-2.4650156 -6.3118997 -0.62832475 0
-2.5570877 -6.2666802 -0.62120157 0
-2.6303346 -6.2394538 -0.60637957 0
-1.6738315 -6.6662998 -0.67436904 0
-1.7381902 -6.6569757 -0.66925269 0
-1.8250424 -6.6182194 -0.65850556 0
-1.9155042 -6.5699778 -0.64656287 0
-2.0082648 -6.5289521 -0.63628042 0
-2.1020548 -6.485528 -0.64264804 0
-2.1660798 -6.4609027 -0.63899934 0
-1.6855521 -6.6821856 -0.67625248 0
0.51133561 -9.5849733 -0.70208538 0
0.47086906 -9.6643744 -0.70393157 0
0.43274975 -9.7521982 -0.70639271 0
0.39258718 -9.8391457 -0.70874172 0
0.33424449 -9.9345875 -0.71060646 0
0.29687357 -10.036708 -0.71400893 0
0.26645112 -10.111298 -0.71636295 0
0.21873879 -10.196379 -0.71839863 0
0.17144656 -10.287234 -0.72081429 0
0.12482548 -10.384752 -0.72367245 0
0.081768751 -10.498242 -0.72762495 0
0.050506592 -10.591063 -0.73109043 0
0.0080926418 -10.65455 -0.7324366 0
-0.032311201 -10.727043 -0.73439914 0
-0.059455395 -10.776746 -0.73578966 0
-0.095753431 -10.869382 -0.73910737 0
-0.13685942 -10.950283 -0.74157524 0
-0.17887187 -11.033034 -0.74413556 0
-5.4203835 -1.8992233 -0.389696 0
-5.5059509 -1.8686028 -0.39127505 0
-5.6071839 -1.8279454 -0.39326954 0
-5.7206759 -1.7972864 -0.39513159 0
-5.0932279 -2.0233967 -0.38354713 0
-5.1821094 -1.9849215 -0.38533455 0
-5.2558064 -1.9594831 -0.38664663 0
-5.3328133 -1.9326885 -0.38803166 0
-3.5886266 -2.575691 -0.44349176 0
-2.6475599 -2.9213271 -0.50742161 0
-2.7284222 -2.89347 -0.49833527 0
-2.8219371 -2.8580344 -0.50984389 0
-2.9188838 -2.8213351 -0.50993109 0
-2.9788539 -2.8028283 -0.51720965 0
-3.4705138 -2.6165307 -0.4382939 0
-3.6180692 -2.5755699 -0.4441897 0
-1.7075741 -3.263762 -0.54645514 0
-1.7868276 -3.2391021 -0.55315208 0
-1.8811579 -3.2101448 -0.55084658 0
-1.9737625 -3.1710446 -0.54972577 0
-2.0645497 -3.1383522 -0.53542554 0
-2.158195 -3.1068497 -0.51531214 0
-2.2529929 -3.0706093 -0.52169728 0
-2.3495574 -3.0351112 -0.52398705 0
-2.44383 -3.0010858 -0.53467506 0
-2.5291004 -2.9674962 -0.53380388 0
-2.6054344 -2.9410088 -0.51809591 0
-2.6837425 -2.9158323 -0.46536115 0
-0.86370271 -3.5828226 -0.57245481 0
-0.93771994 -3.5572608 -0.56759077 0
-1.030143 -3.5256543 -0.55983591 0
-1.129869 -3.4876938 -0.5556531 0
-1.2183757 -3.4550061 -0.56858516 0
-1.3113462 -3.416929 -0.57587194 0
-1.4046745 -3.3839455 -0.56661355 0
-1.4997191 -3.3493927 -0.56003076 0
-1.5969174 -3.3150101 -0.55491781 0
-1.6840559 -3.2845576 -0.55407357 0
-1.7636646 -3.2563848 -0.54616475 0
-1.8460478 -3.2351556 -0.57067901 0
-0.75358295 -3.6291463 -0.59853214 0
-0.8320657 -3.6016107 -0.58699018 0
-0.9362638 -3.5727596 -0.58233309 0
-7.5905333 -3.0589442 -0.40162802 0
-7.6113672 -3.1803784 -0.40111399 0
-7.595788 -3.273243 -0.40024376 0
-7.5820189 -3.3823705 -0.39939225 0
-7.5846043 -3.4699788 -0.39903182 0
-7.5675373 -3.5776348 -0.39831036 0
-7.5841379 -3.5226636 -0.39881116 0
-7.5673103 -3.6644754 -0.39805794 0
-7.5448937 -3.8223319 -0.39735386 0
-7.5672808 -3.7509537 -0.39787444 0
-7.5511265 -3.9072747 -0.39741904 0
-7.5481911 -4.0099707 -0.39738673 0
-7.5122614 -4.147933 -0.3968823 0
-7.5262671 -4.0964489 -0.39706153 0
-7.5227866 -4.2149773 -0.39724302 0
-7.5004339 -4.3167167 -0.39713097 0
-5.0558329 -5.0903306 -0.46593091 0
-5.1218519 -5.0551701 -0.46858555 0
-5.2210932 -5.0143571 -0.4729352 0
-5.308568 -4.9683032 -0.47665262 0
-5.4020944 -4.9307685 -0.48093295 0
-7.5039415 -4.4511952 -0.39776564 0
-7.5145211 -4.4006877 -0.39773571 0
-4.5283709 -5.3328915 -0.44612122 0
-4.5970974 -5.3045573 -0.44855133 0
-4.6746373 -5.268033 -0.45124289 0
-4.7723713 -5.2254062 -0.45488298 0
-4.8605242 -5.1855826 -0.45824832 0
-4.9477654 -5.1420183 -0.46158871 0
-5.0225191 -5.1120195 -0.46471143 0
-7.4939156 -4.5182657 -0.39792582 0
-4.0536261 -5.5516243 -0.47369093 0
-4.1314435 -5.5214677 -0.47665873 0
-4.2163153 -5.4827919 -0.47497797 0
-4.3106279 -5.441258 -0.43974873 0
-4.3980551 -5.4025784 -0.4423604 0
-4.4832191 -5.3593087 -0.4448545 0
-4.5664053 -5.3290935 -0.44785631 0
-7.4925327 -4.6190176 -0.39850527 0
-3.6109297 -5.7680063 -0.50061536 0
-3.6660895 -5.7468786 -0.50225681 0
-3.7540011 -5.7076373 -0.50471449 0
-3.8409228 -5.6630983 -0.50712562 0
-3.9388387 -5.6211495 -0.5108937 0
-4.0305076 -5.5744643 -0.47806302 0
-4.1060443 -5.5475068 -0.47633857 0
-7.4686122 -4.7520647 -0.39899635 0
-7.4756374 -4.6854019 -0.39863008 0
-3.1353946 -5.9907455 -0.49813011 0
-3.1976755 -5.9655609 -0.49797967 0
-3.2887783 -5.926424 -0.49798143 0
-3.3837326 -5.8783078 -0.4978973 0
-3.4759288 -5.8318996 -0.49844244 0
-3.5669599 -5.7968249 -0.50048608 0
-7.4735694 -4.8531618 -0.39992639 0
-2.6493621 -6.2200131 -0.51320928 0
-2.7406957 -6.181881 -0.53354919 0
-2.8309135 -6.1355047 -0.53486472 0
-2.9180055 -6.0973854 -0.51984322 0
-3.015172 -6.0531521 -0.50077033 0
-3.0917637 -6.0206618 -0.49973187 0
-7.4734259 -4.920506 -0.40053052 0
-2.2052102 -6.4399853 -0.54422891 0
-2.2811868 -6.3988223 -0.5374763 0
-2.3728063 -6.3563585 -0.53076088 0
-2.4629548 -6.3183994 -0.52521247 0
-2.5546496 -6.2706532 -0.51905608 0
-2.608736 -6.2459869 -0.51612383 0
-1.6692253 -6.6788831 -0.59516722 0
-1.7211828 -6.6599369 -0.59011304 0
-1.8160404 -6.6140213 -0.57976454 0
-1.9129174 -6.571928 -0.57027 0
-2.0057783 -6.528357 -0.56123775 0
-2.0948405 -6.4866266 -0.55305159 0
-2.1692624 -6.4596472 -0.54758108 0
-1.6724093 -6.6872482 -0.51503247 0
0.73155832 -9.1227083 -0.69138205 0
0.69158816 -9.1878614 -0.69226253 0
0.65007615 -9.2874146 -0.69483668 0
0.60647678 -9.3871498 -0.69736207 0
0.5672555 -9.4618149 -0.69892192 0
0.54353166 -9.530899 -0.70111656 0
-7.8363867 -0.39473546 -0.20448615 0
-7.8274112 -0.53161526 -0.20394109 0
-7.8340364 -0.47520411 -0.20410722 0
-7.8218431 -0.6122843 -0.20363967 0
-7.8160882 -0.71717918 -0.20323527 0
-7.8001328 -0.85130167 -0.20290174 0
-7.8128505 -0.7940731 -0.20293187 0
-7.79215 -0.92924523 -0.20269845 0
-7.7861733 -1.0289526 -0.20237581 0
-7.7748151 -1.1535227 -0.20206875 0
-7.7643614 -1.2752522 -0.20178224 0
-4.4397774 -2.2568836 -0.37218869 0
-4.510066 -2.234844 -0.37327519 0
-4.6195393 -2.1943917 -0.37517488 0
-4.6995354 -2.1679502 -0.37648737 0
-4.7979622 -2.1283741 -0.37832692 0
-4.8869066 -2.0986695 -0.37982827 0
-4.9933367 -2.0572844 -0.38181081 0
-7.7590899 -1.3691863 -0.2015311 0
-3.5836682 -2.5786288 -0.35864192 0
-3.6717815 -2.5457711 -0.35988531 0
-3.7657783 -2.5106072 -0.36125645 0
-3.8434625 -2.4858162 -0.36228165 0
-3.9406147 -2.4439988 -0.36396158 0
-4.034339 -2.4099629 -0.36540955 0
-4.134697 -2.3731451 -0.36700594 0
-4.2142506 -2.3475003 -0.36818525 0
-4.3061175 -2.312885 -0.36973006 0
-4.3817806 -2.2826879 -0.37107062 0
-7.7477789 -1.4649045 -0.20139776 0
-2.5702095 -2.9325976 -0.46215108 0
-2.6449342 -2.9200819 -0.42338085 0
-2.7284884 -2.8957109 -0.40903977 0
-2.8180809 -2.8595595 -0.41214311 0
-2.9119952 -2.8233378 -0.41549492 0
-3.0053244 -2.7945533 -0.40731248 0
-3.0972769 -2.7570052 -0.38441667 0
-3.1948752 -2.7214174 -0.39406911 0
-3.2809 -2.6898959 -0.38692608 0
-3.3739376 -2.6545739 -0.38930959 0
-3.4729929 -2.6219015 -0.35707909 0
-3.54022 -2.5961366 -0.3579995 0
-7.7458677 -1.5763214 -0.20106812 0
-1.7095859 -3.2647099 -0.46975476 0
-1.786828 -3.2393947 -0.43868443 0
-1.8763353 -3.2084789 -0.44234097 0
-1.9678874 -3.1755607 -0.43939221 0
-2.0606203 -3.1435063 -0.41998184 0
-2.1550245 -3.1072023 -0.42108768 0
-2.2518945 -3.0702362 -0.42290261 0
-2.3464859 -3.0347383 -0.42511737 0
-2.4390144 -2.9984398 -0.42800373 0
-2.5292287 -2.9696281 -0.4287537 0
-2.6004727 -2.9451654 -0.43715167 0
-2.6937017 -2.9141986 -0.40754783 0
-7.7295208 -1.7146124 -0.20093638 0
-7.7303724 -1.6711178 -0.20104799 0
-0.75357211 -3.6120145 -0.51667619 0
-0.84636772 -3.5863307 -0.47640035 0
-0.93769777 -3.5581565 -0.47101378 0
-1.0289021 -3.5249012 -0.46061543 0
-1.1224092 -3.488791 -0.45598149 0
-1.2200105 -3.4520829 -0.46101069 0
-1.3106017 -3.4206159 -0.46315691 0
-1.4038682 -3.3867645 -0.45601931 0
-1.4969054 -3.3485978 -0.45350564 0
-1.5927119 -3.3137965 -0.44823432 0
-1.6808412 -3.2841835 -0.43970403 0
-1.7673469 -3.2582238 -0.45091519 0
-1.8559535 -3.2307296 -0.44053417 0
-1.9288985 -3.2143009 -0.43902811 0
-7.7197514 -1.7832761 -0.20091496 0
-0.74726927 -3.6294332 -0.48599273 0
-0.83312762 -3.6011248 -0.48514682 0
-0.89892071 -3.5823247 -0.47400776 0
-7.7090702 -1.8934767 -0.20081447 0
-7.7059627 -2.0194497 -0.20057382 0
-7.704834 -1.9786682 -0.20068374 0
-7.6909566 -2.1073751 -0.2006481 0
-7.686964 -2.2099779 -0.20052488 0
-7.6738205 -2.3343534 -0.20054983 0
-7.6826353 -2.2716019 -0.20049553 0
-7.659976 -2.4178066 -0.20067081 0
-7.6604195 -2.5146508 -0.20055787 0
-7.6401443 -2.6362302 -0.20079395 0
-7.6447973 -2.7293696 -0.2006664 0
-7.6370945 -2.8252549 -0.20076646 0
-7.6163502 -2.9421268 -0.20110494 0
-7.6076403 -3.0540287 -0.20128134 0
-7.6222878 -3.1954517 -0.20113963 0
-5.5162172 -4.8726597 -0.36299056 0
-5.5955448 -4.8382597 -0.36411008 0
-5.6831141 -4.791574 -0.36528701 0
-5.0532598 -5.0910716 -0.3573969 0
-5.1313095 -5.058394 -0.35830382 0
-5.2132378 -5.0141482 -0.35915318 0
-5.3141594 -4.9703636 -0.36041558 0
-5.4227071 -4.9243097 -0.36184853 0
-5.4742994 -4.8888187 -0.36238834 0
-4.5869198 -5.3113132 -0.35346711 0
-4.6722002 -5.268652 -0.35397661 0
-4.7644815 -5.2337351 -0.35483819 0
-4.8458591 -5.192256 -0.35545787 0
-4.9527159 -5.1445765 -0.35648727 0
-5.0159025 -5.1118183 -0.35706005 0
-4.0326681 -5.5589995 -0.351771 0
-4.1217341 -5.5289412 -0.35202703 0
-4.2100706 -5.4878964 -0.35206264 0
-4.3005886 -5.4467793 -0.35225374 0
-4.3939366 -5.4024987 -0.35252696 0
-4.4799967 -5.3596187 -0.35283542 0
-4.5331812 -5.3361921 -0.35314342 0
-3.5787439 -5.7790608 -0.40662092 0
-3.660856 -5.7461371 -0.39110491 0
-3.7439623 -5.7078123 -0.39403597 0
-3.8366802 -5.6633511 -0.39139828 0
-3.932394 -5.6201468 -0.39191923 0
-4.0082269 -5.5814338 -0.37498111 0
-4.1033006 -5.5489368 -0.35236555 0
-3.1229072 -5.9990568 -0.38898224 0
-3.2021582 -5.9621186 -0.39382076 0
-3.2913985 -5.9197087 -0.39649928 0
-3.3861988 -5.8810873 -0.39120674 0
-3.4773102 -5.8371878 -0.39231747 0
-3.5545197 -5.7992606 -0.37955147 0
-3.6293564 -5.7715788 -0.35507041 0
-2.6541657 -6.2137218 -0.44562024 0
-2.739156 -6.1834908 -0.44279411 0
-2.8311586 -6.138885 -0.43247759 0
-2.9225605 -6.0950589 -0.43609232 0
-3.0166481 -6.0484123 -0.43329275 0
-3.0912201 -6.0194745 -0.40683773 0
-3.1667552 -5.9972458 -0.43159506 0
-2.1045573 -6.4686193 -0.47817817 0
-2.1994076 -6.43221 -0.42968929 0
-2.2777743 -6.3997765 -0.4323734 0
-2.3697002 -6.3583903 -0.42726654 0
-2.4584057 -6.3138361 -0.42226487 0
-2.5493746 -6.2718091 -0.42202944 0
-2.6441293 -6.2365375 -0.42245471 0
-1.731315 -6.6557102 -0.47347584 0
-1.8189564 -6.6149182 -0.4633213 0
-1.9092557 -6.5712953 -0.45659363 0
-2.0020487 -6.5328722 -0.45043373 0
-2.0901966 -6.4867282 -0.44122773 0
-2.1555994 -6.4596663 -0.45201299 0
-1.6625969 -6.6877651 -0.43499395 0
-1.7063892 -6.6790104 -0.43270996 0
0.51691055 -9.5836344 -0.50091362 0
0.48118639 -9.6729336 -0.50127363 0
0.43542457 -9.7442198 -0.50087309 0
0.38148952 -9.8447285 -0.50076109 0
0.34685469 -9.9484539 -0.50150996 0
0.31376171 -10.013047 -0.50152534 0
0.25745153 -10.12279 -0.50156844 0
0.2143724 -10.220252 -0.50189859 0
0.19557738 -10.278322 -0.50237423 0
0.17402363 -10.330658 -0.50262517 0
0.13254952 -10.386867 -0.50218272 0
0.086351871 -10.491169 -0.50258088 0
0.033875704 -10.583046 -0.50248927 0
0.00072193146 -10.674642 -0.50315225 0
-0.02637887 -10.722671 -0.50313032 0
-0.046418667 -10.794991 -0.50390118 0
-0.089559555 -10.865255 -0.50375015 0
-0.14585114 -10.968349 -0.50381166 0
-0.18252897 -11.070793 -0.50461757 0
0.42830038 -13.601886 -0.58206195 0
0.31267405 -13.620631 -0.57812166 0
0.19369888 -13.624376 -0.57375753 0
0.1061368 -13.632908 -0.57068604 0
0.043335915 -13.618261 -0.56804216 0
-0.0090694427 -13.649562 -0.56678492 0
-0.097216606 -13.653122 -0.56361818 0
-0.18487787 -13.657578 -0.56050128 0
-0.24325609 -13.660231 -0.55842692 0
-0.32985306 -13.668418 -0.55545497 0
-0.44370055 -13.687626 -0.55175245 0
-5.3395104 -1.9246926 -0.24333388 0
-5.459075 -1.8839668 -0.24128112 0
-5.5914631 -1.8363569 -0.23902862 0
-5.7148557 -1.7984115 -0.23689994 0
-4.5048609 -2.2366276 -0.25769624 0
-4.5821486 -2.2098703 -0.25633407 0
-4.6777182 -2.1695862 -0.25470477 0
-4.7869511 -2.1346183 -0.25277603 0
-4.8890672 -2.0940356 -0.25103095 0
-4.9908404 -2.0564227 -0.24927977 0
-5.1100903 -2.0072806 -0.247265 0
-5.167697 -1.9931477 -0.24623561 0
-5.2422209 -1.966929 -0.24495493 0
-3.570209 -2.5802457 -0.27453274 0
-3.6628129 -2.5531428 -0.27274975 0
-3.7607255 -2.5132623 -0.27097666 0
-3.8467133 -2.4796238 -0.26942104 0
-3.9562893 -2.4372587 -0.2674492 0
-4.0427275 -2.4110007 -0.2658489 0
-4.1193991 -2.3852205 -0.26445785 0
-4.2218018 -2.3374782 -0.26270938 0
-4.3097754 -2.3066752 -0.26113924 0
-4.3988972 -2.2776372 -0.25954115 0
-2.5728791 -2.9392776 -0.29488119 0
-2.6237721 -2.9270217 -0.33611819 0
-2.7150788 -2.8981643 -0.3167052 0
-2.8148699 -2.8602948 -0.3200708 0
-2.9056857 -2.8293469 -0.31939849 0
-2.9965863 -2.7991276 -0.31200004 0
-3.0992498 -2.7540374 -0.28361452 0
-3.1858525 -2.7247808 -0.28187054 0
-3.2816439 -2.6893084 -0.27999994 0
-3.3768239 -2.6513069 -0.27819327 0
-3.4688392 -2.6241393 -0.27638131 0
-1.5863699 -3.294873 -0.36516905 0
-1.6923314 -3.2690296 -0.33998245 0
-1.7786807 -3.2427657 -0.34020263 0
-1.8734854 -3.2104635 -0.33358198 0
-1.9647057 -3.175518 -0.33221498 0
-2.0576582 -3.1430717 -0.33004367 0
-2.1542256 -3.1072102 -0.32920006 0
-2.2482011 -3.0730348 -0.32650769 0
-2.3403487 -3.0369718 -0.32388046 0
-2.4338365 -3.0049951 -0.32379854 0
-2.5276482 -2.971432 -0.32604969 0
-2.6215835 -2.940243 -0.31597331 0
-2.7549753 -2.8997893 -0.34961221 0
-0.85268122 -3.5844493 -0.36756659 0
-0.93764383 -3.5564489 -0.36946779 0
-1.0217512 -3.5276365 -0.37057823 0
-1.1189625 -3.4885964 -0.36263594 0
-1.2167434 -3.4555988 -0.35778379 0
-1.3068684 -3.422019 -0.35549378 0
-1.4008073 -3.3868232 -0.34970701 0
-1.4939076 -3.3487446 -0.34760141 0
-1.5901077 -3.3171134 -0.34234434 0
-1.681304 -3.2853472 -0.3400602 0
-1.7688961 -3.2562799 -0.32816449 0
-1.8474299 -3.242976 -0.35536152 0
-0.74720097 -3.628082 -0.38369679 0
-0.82389176 -3.6037123 -0.38759187 0
-0.9067347 -3.5773058 -0.3867687 0
-7.5993962 -3.1465197 -0.20146918 0
-7.5931659 -3.273349 -0.20168599 0
-7.5911136 -3.3803697 -0.20185314 0
-7.5741477 -3.4715652 -0.20226389 0
-7.5748305 -3.5764399 -0.20244552 0
-7.5913486 -3.5213461 -0.20207703 0
-7.5619588 -3.6652331 -0.20283929 0
-7.5407267 -3.8401289 -0.20361532 0
-7.5611534 -3.7690256 -0.20310313 0
-7.5354729 -3.9090748 -0.2038992 0
-7.5314713 -4.0116224 -0.20428681 0
-7.5150514 -4.1483603 -0.2050276 0
-7.5305347 -4.0966663 -0.204595 0
-7.5158038 -4.2158699 -0.20527767 0
-5.5997152 -4.8286486 -0.23848867 0
-5.6998901 -4.7830172 -0.23661217 0
-7.5208683 -4.3170867 -0.20561615 0
-5.0480304 -5.0911975 -0.24922383 0
-5.1209393 -5.0575285 -0.24777532 0
-5.2157955 -5.0158796 -0.24592561 0
-5.3080254 -4.9705148 -0.24410805 0
-5.4036913 -4.9332924 -0.24231303 0
-5.4924068 -4.8922229 -0.24061555 0
-7.4985929 -4.452086 -0.20657228 0
-7.5026298 -4.4016414 -0.20627545 0
-4.5976005 -5.3077688 -0.25859433 0
-4.6742101 -5.2707858 -0.25695166 0
-4.7594786 -5.2245088 -0.25509906 0
-4.857985 -5.1876283 -0.25314519 0
-4.9358563 -5.1513767 -0.25155389 0
-4.9990091 -5.1188593 -0.25024867 0
-7.4916711 -4.5192318 -0.20700605 0
-4.0210958 -5.5624318 -0.27150321 0
-4.1064873 -5.5358858 -0.26963347 0
-4.2031722 -5.4945316 -0.2674121 0
-4.2989655 -5.4477677 -0.26518655 0
-4.3931761 -5.4038153 -0.26306742 0
-4.4910331 -5.3653927 -0.26098621 0
-4.5444064 -5.333046 -0.25974417 0
-7.4810519 -4.6196651 -0.20768428 0
-3.5023613 -5.7965288 -0.28486228 0
-3.5828152 -5.778821 -0.28295442 0
-3.6569395 -5.7464848 -0.28097624 0
-3.7380972 -5.7105889 -0.27885404 0
-3.8341229 -5.6647367 -0.2763553 0
-3.925966 -5.6191578 -0.27400389 0
-4.0178108 -5.5847473 -0.27186266 0
-7.4720755 -4.7535448 -0.20855618 0
-7.481051 -4.7036419 -0.20813607 0
-3.1145725 -5.9969988 -0.29684317 0
-3.1933699 -5.9626689 -0.2943975 0
-3.2844987 -5.9304237 -0.29178017 0
-3.3764524 -5.8788271 -0.28888106 0
-3.4752746 -5.8391447 -0.28613034 0
-3.5566263 -5.7950749 -0.2837421 0
-3.6286707 -5.7733779 -0.28195441 0
-7.4679899 -4.8372726 -0.20910972 0
-2.6639633 -6.2078576 -0.34545898 0
-2.7365367 -6.185801 -0.34321097 0
-2.8236544 -6.1430011 -0.33802956 0
-2.9201005 -6.0970664 -0.33665779 0
-3.0119669 -6.0520415 -0.33162934 0
-3.0888426 -6.0157828 -0.31113672 0
-3.1736832 -5.99331 -0.29541212 0
-7.4606571 -4.9208035 -0.20973112 0
-2.1918178 -6.440022 -0.33139333 0
-2.2744517 -6.401588 -0.32795918 0
-2.365581 -6.3551483 -0.32415858 0
-2.4544702 -6.3117385 -0.32057449 0
-2.5503619 -6.2666979 -0.32895511 0
-2.6272888 -6.2365046 -0.33904266 0
-2.6915078 -6.2182174 -0.31189692 0
-1.713418 -6.6600928 -0.35237643 0
-1.808352 -6.6155653 -0.34805441 0
-1.9055288 -6.5718513 -0.34373745 0
-1.9985495 -6.5265083 -0.33959591 0
-2.0876822 -6.4855418 -0.33574897 0
-2.1437309 -6.4673533 -0.33352974 0
-1.6600565 -6.687427 -0.35488108 0
0.73203635 -9.1136007 -0.5004251 0
0.6858809 -9.2017536 -0.50023353 0
0.64134669 -9.2960005 -0.50025165 0
0.60651422 -9.3759613 -0.50040728 0
0.56249189 -9.479002 -0.50066555 0
-5.4124637 -1.8992014 -0.09441939 0
-5.5001774 -1.8668988 -0.089793876 0
-5.5921826 -1.8328432 -0.084936529 0
-5.7098165 -1.7990038 -0.07886517 0
-4.5030422 -2.2353797 -0.14218229 0
-4.6129704 -2.1942914 -0.13642769 0
-4.698494 -2.1631179 -0.13195764 0
-4.7860365 -2.1325357 -0.12739736 0
-4.8852663 -2.0942507 -0.12216602 0
-4.9466639 -2.0739646 -0.11897938 0
-5.0607042 -2.0281212 -0.11292791 0
-5.1555614 -1.9996319 -0.10803871 0
-5.2464838 -1.960741 -0.10317039 0
-5.3256693 -1.9321914 -0.099009112 0
-3.5726912 -2.5743794 -0.1902281 0
-3.6550627 -2.547374 -0.18607894 0
-3.7454238 -2.51559 -0.18147334 0
-3.8415041 -2.4822631 -0.17656875 0
-3.9400001 -2.438899 -0.17136773 0
-4.0282564 -2.4103997 -0.16687414 0
-4.1289296 -2.3730831 -0.16165474 0
-4.2201729 -2.3361468 -0.15686221 0
-4.3196921 -2.3078523 -0.15182376 0
-4.424408 -2.2650135 -0.14629728 0
-2.6253965 -2.9217036 -0.20460801 0
-2.7176225 -2.8955038 -0.20838721 0
-2.8097177 -2.8629336 -0.19354597 0
-2.9074154 -2.8246284 -0.19452181 0
-2.9924929 -2.7979283 -0.19769749 0
-3.0962 -2.7556376 -0.21436344 0
-3.1881213 -2.7182305 -0.20971027 0
-3.277365 -2.6921799 -0.20536225 0
-3.3692091 -2.6583486 -0.20072915 0
-3.4705172 -2.6191375 -0.19555888 0
-1.6958429 -3.2650354 -0.25869709 0
-1.7784629 -3.2403114 -0.25051934 0
-1.86814 -3.2141995 -0.2500369 0
-1.9598088 -3.1772475 -0.24406996 0
-2.0568016 -3.1416321 -0.23948954 0
-2.1530685 -3.1085503 -0.23775809 0
-2.2472107 -3.0725174 -0.22953323 0
-2.3396475 -3.0365653 -0.22563082 0
-2.4341693 -3.0013669 -0.22167233 0
-2.5238569 -2.9699345 -0.21124208 0
-2.6068399 -2.9413145 -0.2134299 0
-2.6737347 -2.920331 -0.20651728 0
-0.77123678 -3.6075921 -0.27775171 0
-0.84192711 -3.5875952 -0.28533655 0
-0.93108082 -3.5569944 -0.27718642 0
-1.0199149 -3.5262561 -0.275354 0
-1.1163898 -3.4894705 -0.27152434 0
-1.2109556 -3.4556329 -0.27050322 0
-1.3022752 -3.4195771 -0.269059 0
-1.3962905 -3.3846259 -0.26494166 0
-1.4917344 -3.3544874 -0.26317659 0
-1.5876833 -3.3177328 -0.26003078 0
-1.6741931 -3.2885442 -0.25593776 0
-1.7607157 -3.2607615 -0.25915489 0
-0.73483002 -3.6310008 -0.27642611 0
-0.82052803 -3.6048894 -0.2725476 0
-0.89613712 -3.5791349 -0.26834711 0
-7.588738 -3.0942173 -0.001667738 0
-7.5981951 -3.1822116 -0.0019466281 0
-7.5851526 -3.292434 -0.0035146326 0
-7.6050625 -3.2346408 -0.0020404458 0
-7.5856771 -3.3810549 -0.0041956156 0
-7.5704498 -3.4719775 -0.0056657791 0
-7.5766506 -3.5760856 -0.0061273426 0
-7.5758162 -3.5237215 -0.0057846755 0
-7.5606461 -3.6654263 -0.0075722933 0
-7.5518403 -3.7875013 -0.0088490099 0
-7.5447559 -3.908509 -0.0099888146 0
-7.5294065 -4.012219 -0.011398122 0
-7.5142202 -4.1489716 -0.01295124 0
-7.5263367 -4.0974278 -0.012049243 0
-7.5143499 -4.2165799 -0.013309076 0
-5.5154886 -4.8747511 -0.1171295 0
-5.5908756 -4.8286333 -0.1132035 0
-5.7139683 -4.7854056 -0.1068633 0
-7.5087261 -4.3180747 -0.014115468 0
-5.0148382 -5.1044707 -0.14271539 0
-5.12216 -5.0590224 -0.13728008 0
-5.2204428 -5.0179086 -0.13228247 0
-5.3071404 -4.9715853 -0.12784117 0
-5.393949 -4.9329681 -0.12339172 0
-5.4779434 -4.902288 -0.11908846 0
-7.4850378 -4.4529343 -0.015958473 0
-7.4899154 -4.4025693 -0.015477911 0
-4.5663548 -5.3160586 -0.16508594 0
-4.6584587 -5.2760839 -0.16054288 0
-4.7541428 -5.2335825 -0.15579665 0
-4.8385553 -5.1930265 -0.15158415 0
-4.9439344 -5.1451302 -0.14629585 0
-5.0794058 -5.0896239 -0.13946089 0
-7.4907598 -4.5201874 -0.015966281 0
-4.1229997 -5.5301132 -0.18640339 0
-4.1971488 -5.49333 -0.18290904 0
-4.284111 -5.4512219 -0.17877203 0
-4.373847 -5.414505 -0.17444609 0
-4.4701905 -5.3676538 -0.16977872 0
-4.5299311 -5.3381186 -0.16686618 0
-7.4782915 -4.6206808 -0.017016888 0
-3.5048723 -5.8013573 -0.21428098 0
-3.5921755 -5.7698698 -0.21046844 0
-3.6576967 -5.7493591 -0.20754841 0
-3.7500167 -5.7134867 -0.20343316 0
-3.8327193 -5.665916 -0.19977808 0
-3.9224739 -5.6161647 -0.19573694 0
-4.0196662 -5.5823507 -0.19120836 0
-4.0887632 -5.5529714 -0.18798344 0
-7.4670296 -4.7713108 -0.018155634 0
-7.4853268 -4.7050719 -0.016988873 0
-3.1003163 -6.0012035 -0.21396819 0
-3.1947918 -5.9651484 -0.22683927 0
-3.2918062 -5.9234262 -0.22293778 0
-3.3743889 -5.8795428 -0.21961337 0
-3.4668691 -5.8421559 -0.21571453 0
-3.55688 -5.7978373 -0.21190901 0
-7.454689 -4.854423 -0.019061401 0
-2.5709913 -6.240396 -0.18315522 0
-2.6531091 -6.213882 -0.20974211 0
-2.7314472 -6.1846137 -0.21066017 0
-2.820739 -6.1418996 -0.20771107 0
-2.9110322 -6.101337 -0.2043905 0
-2.9981966 -6.0540161 -0.20534821 0
-3.0858333 -6.0192075 -0.22151895 0
-7.4592638 -4.9221358 -0.019044936 0
-2.1160071 -6.4630847 -0.26307213 0
-2.1830447 -6.4383926 -0.26109111 0
-2.2711685 -6.3939376 -0.25857928 0
-2.3634837 -6.3560529 -0.25575805 0
-2.4521863 -6.3116326 -0.25306684 0
-2.5465956 -6.274755 -0.24998288 0
-2.6301954 -6.2341552 -0.23616147 0
-1.7110121 -6.6594691 -0.27362931 0
-1.8056216 -6.6174688 -0.27122319 0
-1.9028302 -6.5755429 -0.26866916 0
-1.9959543 -6.5320258 -0.26619723 0
-2.0728936 -6.4965544 -0.26409674 0
-2.1354156 -6.4739184 -0.26227337 0
-1.656177 -6.6953664 -0.27485237 0
0.73800683 -9.1140127 -0.31054312 0
0.69384694 -9.2054262 -0.30850726 0
0.6474328 -9.2963181 -0.30640054 0
0.61584473 -9.3821144 -0.30469561 0
0.56651568 -9.4750204 -0.30245188 0
0.52826452 -9.5543394 -0.30061805 0
-7.833106 -0.39246345 0.042537227 0
-7.8386269 -0.49373829 0.041330829 0
-7.8159933 -0.61196661 0.038557395 0
-7.8079185 -0.71842158 0.036665171 0
-7.7960291 -0.85007679 0.034258649 0
-7.8092661 -0.79246676 0.035693243 0
-7.785058 -0.92990541 0.032633379 0
-7.7809906 -1.0285238 0.031096146 0
-7.7568183 -1.183895 0.027851477 0
-7.7774973 -1.1018153 0.029942021 0
-7.764493 -1.2720592 0.02706489 0
-4.4982381 -2.2367592 -0.026659131 0
-4.6028013 -2.2002392 -0.017621987 0
-4.700139 -2.1588535 -0.0089027211 0
-4.7938929 -2.1231349 -0.00064707547 0
-4.8768358 -2.0982375 0.0064142868 0
-4.9427786 -2.0742016 0.012199394 0
-7.7437201 -1.3970221 0.024440929 0
-7.7648368 -1.3404956 0.026193261 0
-3.5133631 -2.5970707 -0.11065567 0
-3.5627728 -2.5831506 -0.10673578 0
-3.6545348 -2.545079 -0.098865978 0
-3.7443228 -2.5139287 -0.091393061 0
-3.8412735 -2.4796371 -0.083247632 0
-3.926466 -2.4500847 -0.076078974 0
-4.0207148 -2.4151287 -0.0680141 0
-4.1213012 -2.3777111 -0.059368342 0
-4.2073269 -2.3455286 -0.051938698 0
-4.3002892 -2.3097835 -0.043845586 0
-4.3947415 -2.2757521 -0.035690062 0
-7.7447658 -1.4636798 0.023643419 0
-2.5547714 -2.9463899 -0.1301502 0
-2.6270931 -2.9249718 -0.10465134 0
-2.7138484 -2.8993056 -0.11555775 0
-2.8002496 -2.8644116 -0.10649838 0
-2.8996987 -2.8278742 -0.096139058 0
-2.9986987 -2.7924538 -0.10496826 0
-3.0785089 -2.7623758 -0.11557037 0
-3.1761775 -2.7248325 -0.098978505 0
-3.2740812 -2.6921465 -0.092958376 0
-3.3696752 -2.6531544 -0.083419308 0
-3.4492354 -2.6249232 -0.096083209 0
-3.5548177 -2.5929146 -0.10770374 0
-7.7435122 -1.5529811 0.022459969 0
-1.616176 -3.288286 -0.15226239 0
-1.681793 -3.2687085 -0.15472178 0
-1.7701495 -3.2427654 -0.14809908 0
-1.866105 -3.2090566 -0.14095235 0
-1.9552751 -3.1794639 -0.13940789 0
-2.051779 -3.1402984 -0.15016122 0
-2.1458106 -3.1092458 -0.14299268 0
-2.2419872 -3.0737121 -0.13467415 0
-2.336458 -3.0366979 -0.12561263 0
-2.4301505 -3.0036659 -0.11786589 0
-2.5256908 -2.9653304 -0.10074428 0
-2.6084132 -2.9415762 -0.11021189 0
-7.7146792 -1.7192184 0.019005269 0
-7.7259545 -1.6490394 0.02041389 0
-0.76923186 -3.609036 -0.17294247 0
-0.82723331 -3.5898223 -0.16851079 0
-0.92710888 -3.5582478 -0.17911719 0
-1.0214176 -3.5250826 -0.18092093 0
-1.1105313 -3.490289 -0.17879331 0
-1.2089238 -3.458107 -0.17454368 0
-1.2990521 -3.4219415 -0.16083154 0
-1.3929874 -3.3840594 -0.15991032 0
-1.4890095 -3.3512323 -0.15659738 0
-1.5828992 -3.3175726 -0.15525532 0
-1.6741879 -3.2847064 -0.15055865 0
-1.7697599 -3.2567527 -0.14526859 0
-1.863414 -3.2309332 -0.14390519 0
-7.716372 -1.7824999 0.018325359 0
-0.73613989 -3.6319666 -0.17247638 0
-0.82874757 -3.5980589 -0.18046117 0
-0.90984756 -3.5778499 -0.17847463 0
-7.7007651 -1.8949846 0.016225591 0
-7.6878481 -2.0251005 0.014079884 0
-7.700098 -1.9786266 0.015217245 0
-7.6891975 -2.10618 0.013227418 0
-7.6698942 -2.2148857 0.011063829 0
-7.6669598 -2.3352904 0.0096119493 0
-7.6829782 -2.2697835 0.011110514 0
-7.6592884 -2.4165597 0.0083700866 0
-7.6529555 -2.5157948 0.0070270598 0
-7.6329751 -2.6562514 0.0046178401 0
-7.6457543 -2.5950911 0.0058632046 0
-7.6444273 -2.7283797 0.00448291 0
-7.6314039 -2.8259325 0.0029014051 0
-7.6186676 -2.9406252 0.0012018532 0
-7.6298532 -2.9376965 0.001786381 0
-7.6084394 -3.0348794 -0.00015877187 0
-7.6034975 -3.1269107 -0.001210019 0
-5.5065427 -4.8746939 0.0055349618 0
-5.5892344 -4.8295507 0.012520067 0
-5.6982498 -4.7848883 0.021788791 0
-5.0123129 -5.0955887 -0.035469837 0
-5.1177292 -5.059401 -0.026786037 0
-5.2082133 -5.0168467 -0.019349024 0
-5.3014889 -4.9717727 -0.011629641 0
-5.3794174 -4.9319615 -0.0051451772 0
-5.4692183 -4.9022079 0.0024175048 0
-4.5769572 -5.3094735 -0.069863498 0
-4.666296 -5.2712011 -0.062904142 0
-4.7660589 -5.229332 -0.055032603 0
-4.8496265 -5.1881666 -0.048429631 0
-4.9360085 -5.144557 -0.041538 0
-5.009223 -5.1142211 -0.035600565 0
-5.0782108 -5.0906596 -0.029936574 0
-4.1152911 -5.5277987 -0.10393867 0
-4.2043982 -5.4903893 -0.09752205 0
-4.2940369 -5.4489393 -0.091016382 0
-4.3868952 -5.4045234 -0.084176056 0
-4.4713359 -5.3610463 -0.077896677 0
-4.5521312 -5.3300529 -0.071656115 0
-3.5739272 -5.7784052 -0.066746503 0
-3.6534314 -5.7454023 -0.10021824 0
-3.7457752 -5.7053723 -0.09073291 0
-3.8357687 -5.6630301 -0.084163323 0
-3.9250803 -5.6190596 -0.080517448 0
-4.0065594 -5.582521 -0.095336698 0
-4.0734801 -5.5629578 -0.10654796 0
-3.113327 -5.9989023 -0.12463124 0
-3.1860766 -5.9664412 -0.12338392 0
-3.2782259 -5.9256148 -0.11855439 0
-3.3737245 -5.8786488 -0.11736079 0
-3.4663534 -5.8369555 -0.10959323 0
-3.5491052 -5.7984657 -0.11033039 0
-3.6158071 -5.7768602 -0.099267207 0
-2.5787013 -6.2333136 -0.11667374 0
-2.643872 -6.2155757 -0.11409471 0
-2.728296 -6.185607 -0.11102274 0
-2.8179598 -6.1434007 -0.10811603 0
-2.9118006 -6.097095 -0.10474689 0
-3.0049391 -6.0522251 -0.11303619 0
-3.0897055 -6.0190568 -0.13002919 0
-3.1801903 -5.9887471 -0.15918319 0
-2.1122475 -6.4582019 -0.15632884 0
-2.1728208 -6.4432402 -0.15120862 0
-2.2682273 -6.3988581 -0.15415555 0
-2.3595395 -6.3535376 -0.15314865 0
-2.4499152 -6.3173227 -0.15117913 0
-2.5378103 -6.2749672 -0.14937466 0
-2.6272984 -6.2398467 -0.1420649 0
-1.7139761 -6.6603322 -0.15498625 0
-1.8046253 -6.6205053 -0.15239237 0
-1.8992357 -6.5734296 -0.15579699 0
-1.9924558 -6.5257792 -0.15616624 0
-2.0764675 -6.4896441 -0.15553614 0
-2.1756725 -6.4558959 -0.15929228 0
-1.6618717 -6.6882095 -0.19466297 0
0.50959921 -9.5961971 -0.29968238 0
0.48340845 -9.6644735 -0.29825664 0
0.45178795 -9.7230253 -0.2967923 0
0.42914081 -9.7597227 -0.29579675 0
0.40404725 -9.8360691 -0.29428589 0
0.36371017 -9.9258919 -0.29221481 0
0.3194077 -10.010783 -0.29008019 0
0.27566528 -10.100839 -0.28788519 0
0.2317791 -10.195099 -0.28562158 0
0.18513703 -10.287066 -0.28329456 0
0.13734317 -10.380953 -0.28089744 0
0.089932442 -10.481167 -0.27841949 0
0.04403615 -10.592007 -0.27584016 0
0.0057988167 -10.667948 -0.27387542 0
-0.017442465 -10.7278 -0.27251184 0
-0.043255806 -10.781464 -0.2711466 0
-0.08206296 -10.865333 -0.26904684 0
-0.13992524 -10.962752 -0.26623449 0
-0.17837 -11.058191 -0.26398247 0
0.43850803 -13.600532 -0.25054431 0
0.32425308 -13.62456 -0.246968 0
0.20307159 -13.619502 -0.2435244 0
0.11625147 -13.630916 -0.2408565 0
0.029259682 -13.64071 -0.23818812 0
-0.088188171 -13.645457 -0.23466982 0
-0.17302847 -13.663887 -0.23192626 0
-0.23357439 -13.655581 -0.23022771 0
-0.31742787 -13.678419 -0.22743362 0
-0.40659165 -13.671597 -0.22483985 0
-0.46439719 -13.675423 -0.22304654 0
-5.4453835 -1.8881631 0.056607194 0
-5.5960255 -1.8270441 0.070165046 0
-5.704114 -1.8000579 0.079313323 0
-4.4924192 -2.2390659 0.089040183 0
-4.5771813 -2.2056065 0.099539094 0
-5.0107164 -2.049624 0.018160149 0
-5.0907383 -2.0166247 0.025340423 0
-5.1658926 -1.9887002 0.031977795 0
-5.240622 -1.9622874 0.038535751 0
-5.3174481 -1.9354527 0.045274191 0
-3.5737185 -2.5772233 0.021945111 0
-3.6431661 -2.5552433 -0.012947276 0
-3.7354498 -2.5208278 -0.0020968094 0
-3.8332033 -2.485337 0.0094081759 0
-3.9149179 -2.459182 0.0188426 0
-4.0205574 -2.4123816 0.031988576 0
-4.1287622 -2.3675244 0.045303706 0
-4.2038107 -2.3460236 0.053947367 0
-4.3007178 -2.3065338 0.065917887 0
-4.3880553 -2.2789564 0.076230243 0
-2.6353984 -2.9204559 -0.023709543 0
-2.7136683 -2.8938777 -0.025519133 0
-2.8036206 -2.8638952 -0.013130553 0
-2.8976321 -2.8263249 0.001107607 0
-2.9787362 -2.8011637 -0.0019258074 0
-3.0879142 -2.7589715 -0.0057908371 0
-3.1827226 -2.7278013 0.0071575455 0
-3.2748318 -2.6864183 0.021114789 0
-3.3649101 -2.6548953 0.033987634 0
-3.4663248 -2.6214485 0.013241239 0
-3.5287564 -2.5967481 0.01584816 0
-1.5027905 -3.3178186 -0.022293676 0
-1.670191 -3.2731934 -0.053464297 0
-1.77766 -3.2432458 -0.041679919 0
-1.8645295 -3.2118118 -0.030563606 0
-1.9586411 -3.1785364 -0.030513074 0
-2.0467086 -3.145628 -0.037652254 0
-2.1427019 -3.1096277 -0.048850112 0
-2.2387853 -3.0739057 -0.037002075 0
-2.3349295 -3.0391653 -0.023040103 0
-2.4260046 -3.0054188 -0.012979873 0
-2.5143828 -2.9725397 -0.0060587395 0
-2.6161742 -2.9335337 -0.030220937 0
-0.72803497 -3.6192064 -0.035954084 0
-0.83310199 -3.5900722 -0.068479657 0
-0.91793925 -3.5601861 -0.077970698 0
-1.0157188 -3.5264184 -0.083866581 0
