# .PCD v0.7 - Point Cloud Data file format
VERSION 0.7
FIELDS x y z intensity
SIZE 4 4 4 4
TYPE F F F F
COUNT 1 1 1 1
WIDTH 1170
HEIGHT 1
VIEWPOINT 0 0 0 1 0 0 0
POINTS 1170
DATA ascii
1.3577015 -1.5327035 -0.044134632 1092.6
1.2489052 -1.5454643 -0.038526595 974.27271
1.1496873 -1.5550221 -0.038910806 990.90912
1.0520968 -1.5723251 -0.039198916 936.54547
0.95743155 -1.5957631 -0.049871758 1049
0.83782727 -1.6122787 -0.045653459 1063
0.75699258 -1.6313373 -0.049413964 1052
0.71054602 -1.6748523 -0.045020372 1000
0.54318726 -1.617921 -0.039936185 908.57141
0.47427022 -1.6321648 -0.046377603 1024
0.35892415 -1.677789 -0.054909386 1135.625
0.26702356 -1.6606163 -0.051156186 1202.5
0.14459038 -1.6724263 -0.047803394 879.14288
0.074793458 -1.6994673 -0.055263255 993.40002
-0.0322932 -1.7512683 -0.066606432 1164.6666
-0.16225612 -1.7059267 -0.047978953 864.40002
-0.20964432 -1.7585371 -0.05048503 845.42859
-0.53529727 -1.7917919 -0.049974237 774.42859
-0.94822919 -1.8314824 -0.053932052 650.5
-1.0125579 -1.8582664 -0.062313266 720
-1.4679266 -1.8771749 -0.056780964 489
-1.5009643 -1.9044502 -0.060635123 445.79999
-2.2219663 -1.9916487 -0.065939017 172.33333
1.7356488 -1.6075579 -0.036978625 1081.8
1.6556584 -1.5985894 -0.034084089 1071.1818
1.5777035 -1.57855 -0.034767739 1157.8334
1.3591702 -1.6359479 -0.049840435 1070.8889
1.2614553 -1.6565669 -0.044993535 990.25
1.1616271 -1.6725119 -0.043399386 922.5
1.0646521 -1.698294 -0.0412855 920.75
0.96643496 -1.687589 -0.050665654 1193.7778
0.87523854 -1.7344098 -0.046909288 1140.8182
0.78910053 -1.7304138 -0.052723434 1084.25
0.64775538 -1.6974715 -0.047879487 1001.75
0.56983423 -1.7314161 -0.051338375 1051.1818
0.47026241 -1.757356 -0.061053425 1167.6364
0.35633218 -1.7689438 -0.055647824 1122.8572
0.24769843 -1.80674 -0.051744871 1033
0.22649515 -1.8339357 -0.05120704 964
0.065022469 -1.7925774 -0.052957132 1077.6
-0.031298995 -1.8357438 -0.056332376 910.5
-0.25017059 -1.8245605 -0.051103752 784.66669
-0.29949796 -1.8680661 -0.05576396 1035.3334
-0.56436908 -1.8519903 -0.050781354 717
-0.60811102 -1.9028046 -0.054892331 751.14288
-0.99253547 -1.9374707 -0.056737177 622.42859
-1.5381252 -2.0051544 -0.06424161 409.5
-2.1996317 -2.0895751 -0.063973397 166.5
1.665887 -1.7186897 -0.040723622 955.91669
1.5736537 -1.6895226 -0.042339496 1117.7778
1.483477 -1.7488465 -0.046400286 1252.625
1.3758131 -1.7649697 -0.047235496 1160.5714
1.2751238 -1.7682825 -0.04607952 1045.1666
1.1793877 -1.7791928 -0.045176242 1012.7692
1.0814035 -1.7945218 -0.045481179 1002.9231
0.98177695 -1.8005455 -0.050989002 1115.4615
0.87904501 -1.8176326 -0.056315362 1160.2142
0.78562838 -1.8180683 -0.051286262 1070.7
0.67674541 -1.8212519 -0.049970321 996.08331
0.59037042 -1.8586316 -0.054573625 1012.1818
0.48812354 -1.8486376 -0.065291084 1146
0.37742543 -1.8759528 -0.054250307 1119.1
0.31717837 -1.9194525 -0.057572611 1114.75
0.19236672 -1.8640099 -0.052825212 1124.125
0.11591733 -1.9173592 -0.059404254 1039
-0.055646062 -1.8855174 -0.054965913 810
-0.10872376 -1.9242024 -0.060612544 895.5
-0.17738283 -1.9591405 -0.070030116 1306.6666
-0.33259094 -1.9458909 -0.055236161 794.57141
-0.36792076 -1.9926608 -0.058030225 768
-0.63598168 -1.9783478 -0.055411205 720.79999
-0.66937411 -2.0277543 -0.058568556 727.75
-1.0241109 -2.0152833 -0.059114985 625
-1.0715181 -2.0611832 -0.065079048 694.75
-1.5472711 -2.1073735 -0.06459447 444
-1.5603958 -2.1143432 -0.066305995 433.20001
-2.2417521 -2.1919851 -0.069400445 175
-2.2587595 -2.2445314 -0.071786486 157
-4.3490896 -2.466593 -0.17058966 794
1.5772581 -1.8118659 -0.042241834 1142.2
1.485585 -1.8413942 -0.056447711 1164.2858
1.3832281 -1.8371289 -0.056361623 1155.8572
1.2844219 -1.8429977 -0.053838655 1075.3077
1.1874375 -1.8630737 -0.049699727 1002.8571
1.0885332 -1.8740233 -0.051237077 1001.8571
0.98049521 -1.8837036 -0.064508393 1143.4445
0.89323688 -1.9004222 -0.061347313 1094.8
0.78952909 -1.9180417 -0.056470066 1120.2
0.69220638 -1.9162322 -0.055675149 1139.2307
0.59433484 -1.9589691 -0.06200736 1125.0667
0.47789168 -1.9345759 -0.057797067 1124.8182
0.4196229 -1.997308 -0.056391098 1083.7778
0.27564061 -1.9524844 -0.060038805 1214.25
0.21383011 -2.0030382 -0.064429328 1195.9
0.076600671 -1.9821795 -0.05839755 1006.2222
0.020407438 -2.035352 -0.063122958 1046.7142
-0.082755566 -2.0298276 -0.077151164 1763.8
-0.17624068 -2.0461314 -0.061490752 972.125
-0.39181006 -2.0670981 -0.057266016 728.20001
-0.68227375 -2.1095366 -0.057181176 654.75
-1.0856696 -2.146292 -0.065380998 667
-1.5816196 -2.2192297 -0.068726733 424.66666
-2.2841887 -2.3066177 -0.075324401 165.60001
-4.3427773 -2.5536187 -0.17217872 824
1.5527647 -1.8932481 -0.047136344 1140.3334
1.5035713 -1.9257609 -0.056949995 977.54999
1.3957275 -1.9314938 -0.065843873 975.4231
1.3074601 -1.9447621 -0.054664284 846.52631
1.201429 -1.9504416 -0.047842313 792.93335
1.1027396 -1.9656289 -0.047745533 790.59998
0.99685532 -1.9771826 -0.062641397 886
0.89925873 -1.998955 -0.059122063 881.125
0.80177397 -2.0193658 -0.06011001 928.1579
0.7119211 -2.0225248 -0.062146798 1042.8636
0.60710251 -2.0539441 -0.065874331 1094.8125
0.51186156 -2.0510356 -0.062480677 1196.8572
0.40704811 -2.0774331 -0.061021011 1062.4166
0.31792927 -2.0829535 -0.062083188 1050.9286
0.17965806 -2.0740147 -0.06090647 1099.1428
0.13444245 -2.1162121 -0.064929433 1135
0.00036346912 -2.1173992 -0.072703093 1189.1
-0.037839055 -2.1644685 -0.060992904 990.5
-0.21418428 -2.1282926 -0.061929829 787
-0.23954666 -2.1863041 -0.062511273 772.33331
-0.42203629 -2.1496816 -0.057718776 746.20001
-0.44834697 -2.2010231 -0.059867676 724.59998
-0.7164346 -2.194504 -0.059829511 680.5
-0.75647914 -2.2346272 -0.065492406 766.5
-1.1065749 -2.2421877 -0.066968866 644.20001
-1.1424588 -2.277611 -0.072071023 705
-1.5995995 -2.298331 -0.071110405 442.66666
-1.6304168 -2.3464551 -0.075375259 457
-2.2845683 -2.4075749 -0.076716602 167.5
-2.3321538 -2.455441 -0.082770303 185
-3.240932 -2.5093081 -0.074166179 92
-4.3354669 -2.6575382 -0.17421386 833.66669
1.4648733 -1.9951379 -0.061501704 858.66669
1.4414293 -1.9974327 -0.059333231 812.25
1.2890427 -2.0093763 -0.051072128 705.59998
1.207248 -2.0188978 -0.049149148 697.625
1.1105161 -2.0373554 -0.047586605 706.3125
1.0275836 -2.0465624 -0.051503673 747.5
0.91897941 -2.0661199 -0.058190346 771
0.81549037 -2.1017952 -0.062044453 800.1579
0.71678972 -2.1269751 -0.063773111 802.13043
0.62272179 -2.1503773 -0.064029783 906.0625
0.51214266 -2.1507177 -0.063483372 1058.5
0.41526163 -2.1576958 -0.066953063 1101.9375
0.32659686 -2.1829097 -0.062448584 999.66669
0.23860669 -2.1856909 -0.063440837 955
0.1042906 -2.1926851 -0.073966317 1108.0909
0.07049787 -2.2386727 -0.06416849 1006.6667
-0.071676731 -2.221307 -0.062961653 992.5
-0.27304614 -2.251194 -0.064967938 787
-0.48755324 -2.2747617 -0.063875422 758.55554
-0.52843988 -2.292464 -0.071084626 818
-0.76182616 -2.3099847 -0.064357989 732.11108
-1.1113561 -2.3375578 -0.066557162 595
-1.129923 -2.3792448 -0.069150969 631
-1.6272811 -2.4304051 -0.075409934 446
-2.2930226 -2.5283055 -0.07962577 174.33333
-2.3198352 -2.4798267 -0.081790827 157
-4.3249006 -2.7610698 -0.17608416 838
0.69111466 -2.1935868 -0.060953025 826.33331
0.62102485 -2.2385855 -0.062603407 800.54169
0.5369451 -2.2570264 -0.062934704 863
0.41321397 -2.2590256 -0.0653539 1010.4375
0.33343279 -2.2725754 -0.067183048 1005.0833
0.24261749 -2.2825663 -0.068346687 1021.125
0.16838646 -2.3166633 -0.062515028 893.66669
0.036612988 -2.3074586 -0.064906813 996.28571
-0.10424435 -2.2950726 -0.063731514 931.59998
-0.13750648 -2.3519449 -0.067042291 950.66669
-0.29940832 -2.3233192 -0.066006511 750
-0.32397282 -2.3697062 -0.068817005 788.75
-0.50965917 -2.3502545 -0.065024778 726.5
-0.52232802 -2.3928659 -0.066047244 749.57141
-0.8018955 -2.3997326 -0.069566607 741.75
-0.82072222 -2.4216456 -0.07254409 752.75
-1.1475912 -2.4602995 -0.07161203 623.71429
-1.6490306 -2.5269601 -0.079211369 465.39999
-2.2814307 -2.6068289 -0.079808436 163.5
-4.3187251 -2.8638928 -0.17845446 821.33331
0.52856696 -2.3477736 -0.060304098 737.90479
0.45243835 -2.3713722 -0.060484715 764.34784
0.33539462 -2.3751187 -0.06609486 978.06665
0.23308384 -2.3897607 -0.065187454 988.125
0.13116109 -2.395865 -0.065038927 914.71429
0.037480593 -2.4065437 -0.066501185 925.5
-0.028711081 -2.4334683 -0.069751702 994.44446
-0.17153311 -2.4396434 -0.06925454 963.45453
-0.19498992 -2.4910662 -0.071985312 1041
-0.34982693 -2.4613862 -0.07025484 756.09998
-0.55976117 -2.4852955 -0.070960648 754.79999
-0.82399786 -2.5160358 -0.071971737 716.375
-1.1730829 -2.5474277 -0.075718589 653.75
-1.2034503 -2.5775166 -0.080713265 707
-1.6579498 -2.6257513 -0.081701852 511.16666
-4.292726 -2.9666014 -0.17920257 845.33331
0.46881151 -2.4297259 -0.061735213 704.44446
0.36039221 -2.4402649 -0.062016543 845
0.27732325 -2.4878097 -0.066961318 981.86664
0.17694092 -2.5004928 -0.068193495 966.9375
0.067996144 -2.5127864 -0.069166012 868.93335
-0.062080741 -2.5219235 -0.072189681 987.9231
-0.085665464 -2.5772953 -0.075192563 1022
-0.20763755 -2.5463324 -0.072490536 970.27271
-0.37640035 -2.5454452 -0.073210701 768
-0.38964546 -2.6008434 -0.074727103 735.75
-0.5749625 -2.5842967 -0.072151631 726.85712
-0.58820117 -2.6266918 -0.074358046 750.5
-0.83938873 -2.6193681 -0.074267432 671.75
-1.1755677 -2.6387827 -0.076630004 645
-1.2007958 -2.6704268 -0.081019744 726.83331
-1.6703268 -2.7056448 -0.084696904 511.66666
-1.6932532 -2.7486014 -0.088656507 530.5
-4.2857585 -3.0684922 -0.18173832 840
0.32461643 -2.5692966 -0.065780729 807
0.25832689 -2.58534 -0.068466842 910.82355
0.15844893 -2.5990226 -0.072139062 991.42859
0.06059444 -2.618573 -0.072380528 887.3125
0.024181724 -2.6552289 -0.072013699 811
-0.098046899 -2.6318407 -0.076008603 986.66669
-0.23133123 -2.6513894 -0.074644648 971.58331
-0.39986837 -2.6727574 -0.075776674 772
-0.59399903 -2.6957641 -0.075166509 767.55554
-0.85704768 -2.7173007 -0.077811927 692.42859
-0.87244165 -2.7659633 -0.081072778 708.5
-1.2138401 -2.7707975 -0.08447329 729.85712
-1.6915106 -2.8122106 -0.089763716 547
-4.2785792 -3.1701207 -0.18437809 770.33331
0.34016562 -2.6948957 -0.069508485 703
0.28617537 -2.705694 -0.069579028 747.59998
0.19313061 -2.6954067 -0.073603183 951.75
0.10076404 -2.7086983 -0.07534387 979.26666
0.006724596 -2.7193148 -0.074437864 866.92859
-0.11608255 -2.7376277 -0.077469267 1001.4615
-0.2539345 -2.7325153 -0.078612722 1017.6667
-0.26280391 -2.7832129 -0.080336422 969
-0.42139399 -2.773675 -0.08001902 823.5
-0.60601699 -2.7980981 -0.077941336 714.44446
-0.86976779 -2.8318336 -0.081470244 677.42859
-1.2193292 -2.8764191 -0.087413765 693.85712
-4.2675438 -3.2714064 -0.18679693 648.33331
0.28194368 -2.7691224 -0.072296515 745.5
0.19034696 -2.8069 -0.076709397 869.58331
0.074223399 -2.8107901 -0.080053769 965.71429
-0.016498685 -2.8222523 -0.078781895 882.0769
-0.13588583 -2.8336356 -0.081641443 988.59998
-0.14957333 -2.8794539 -0.085457675 1031
-0.26806319 -2.8579254 -0.081675947 921.90912
-0.43612635 -2.875958 -0.084050611 784.90002
-0.62079823 -2.8943005 -0.082286574 749.25
-0.64820349 -2.9447625 -0.089100085 802
-0.8904866 -2.9286604 -0.087268591 739.625
-1.2107452 -2.9751353 -0.088513479 677.66669
-4.3890519 -3.3459866 -0.200093 237
-6.0460291 -3.5996351 -0.17599574 1151.5
0.29294181 -2.8922405 -0.076027453 660.5
0.22528279 -2.8817484 -0.076709166 761.0769
0.11948717 -2.9008055 -0.081084587 912.40912
-0.00041222572 -2.9289637 -0.082599431 877.52631
-0.13584912 -2.9065592 -0.08173231 917.66669
-0.1480118 -2.9500866 -0.085828945 945.5
-0.27947247 -2.9600995 -0.085990399 943.54547
-0.42739403 -2.9334877 -0.082836248 704
-0.44626033 -2.9842994 -0.088518545 784.11108
-0.6254214 -3.0031552 -0.085852668 735
-0.6434387 -3.0029724 -0.089625843 783
-0.88125193 -3.0333991 -0.088447638 744.25
-1.2228416 -3.0611196 -0.093130283 698
-1.2307509 -3.1037014 -0.09587609 709.5
-2.3089299 -3.2268612 -0.10036428 237
-6.0492826 -3.6899695 -0.17934719 2024
0.28625131 -2.9851646 -0.078508869 672.33331
0.22453713 -2.9782505 -0.078852341 770.20001
0.14615846 -3.0042927 -0.083261028 910.40002
0.044879913 -3.0094903 -0.084656939 888.17645
-0.032419205 -3.0359633 -0.085786954 848.09998
-0.14728284 -3.0423794 -0.088032953 902.54547
-0.28386867 -3.0583806 -0.089990862 954.29999
-0.442186 -3.0826914 -0.090769693 802.20001
-0.62191331 -3.0605011 -0.086878091 722
-0.62724698 -3.1122999 -0.090002865 758.375
-0.89597356 -3.1398249 -0.095064484 771.79999
-0.92444837 -3.137723 -0.10028832 825.33331
-1.2017087 -3.2157693 -0.09552855 694.5
-1.2344197 -3.1647675 -0.098773316 748
-1.6710554 -3.2347701 -0.10009059 608.33331
-2.2972231 -3.3025997 -0.10187906 259
-5.9700222 -3.7721381 -0.17721745 5370.5
0.29115391 -3.1123304 -0.081866063 665
0.22726715 -3.1033716 -0.082603291 731.5
0.15147722 -3.1052289 -0.085529879 881.33331
0.062301874 -3.11567 -0.088754252 917.14288
-0.029841423 -3.1268754 -0.089097321 844.61536
-0.14546061 -3.1406963 -0.091910377 926
-0.28286183 -3.1570523 -0.09416125 941.63635
-0.43793905 -3.1810527 -0.094214223 807.88892
-0.62512934 -3.2043488 -0.093713 806
-0.86611784 -3.2346256 -0.093647897 717.14288
-1.1998001 -3.2874351 -0.098422788 675
-1.2180432 -3.2550282 -0.099894866 722.5
-1.6804496 -3.3257427 -0.10514795 573.25
-6.0142417 -3.8668706 -0.18342695 3397.5
0.30834603 -3.2315431 -0.085965149 648
0.23767996 -3.1958268 -0.085821554 724.86664
0.15966225 -3.2059898 -0.089962751 865.66669
0.073138595 -3.2169993 -0.092228122 896.92859
-0.018636703 -3.2282536 -0.092414916 834.30768
-0.13389158 -3.2427604 -0.095134266 937.33331
-0.26697266 -3.2592163 -0.096234672 949.09088
-0.42544997 -3.2786555 -0.096948519 818.09998
-0.61497009 -3.301862 -0.096937537 780.66669
-0.86527073 -3.3330865 -0.098606721 754.5
-1.1887726 -3.363282 -0.10037547 690
-1.2007474 -3.3827994 -0.10327867 623
-1.6521121 -3.4309754 -0.10606655 490.5
-6.0141711 -3.979835 -0.18755278 1905
0.3239069 -3.2964578 -0.088384457 641.5
0.25924313 -3.294014 -0.088641755 705.6875
0.17830157 -3.3021021 -0.093320981 883.78571
0.093041062 -3.3133352 -0.094943941 885
-0.0027263165 -3.3252387 -0.096225575 845.58331
-0.11561203 -3.339591 -0.098005988 963.45453
-0.2464987 -3.3555403 -0.098328285 954.29999
-0.40344346 -3.3798935 -0.098992705 813
-0.58329952 -3.3780196 -0.095132917 713
-0.59629977 -3.410692 -0.10016762 765.71429
-0.85430396 -3.4423003 -0.10312995 756.85712
-0.88587177 -3.409858 -0.10688673 806
-1.1752731 -3.4706514 -0.1039941 639.5
-1.1958543 -3.474333 -0.10751645 717.25
-1.6403791 -3.5292094 -0.10934225 557.59998
-2.2313514 -3.5677888 -0.10561865 263
-6.0070162 -4.0922542 -0.19128245 1499
0.35232449 -3.3812578 -0.091006875 664.29413
0.28695822 -3.390677 -0.09262602 743.9375
0.19134223 -3.4077964 -0.098343849 925.57892
0.081401587 -3.4160969 -0.098986737 872.11108
-0.0066738129 -3.4160187 -0.098967075 855.875
-0.095375538 -3.4317718 -0.10170693 973.18182
-0.22732627 -3.4524179 -0.10238083 939.81818
-0.39498413 -3.4742618 -0.1049027 833.875
-0.59317291 -3.4984808 -0.1061351 799.28571
-0.8221432 -3.5309272 -0.10323676 735.42859
-1.1545187 -3.597496 -0.10841402 693.33331
-1.1753293 -3.547785 -0.10859042 719.75
-1.6284772 -3.6275909 -0.11301377 547.16669
-2.2110138 -3.7397976 -0.11160003 284
-5.9961238 -4.2043633 -0.19484323 1518
0.38187349 -3.4859462 -0.094409667 714.29169
0.28269994 -3.4907391 -0.098524861 863.13635
0.16981137 -3.4989822 -0.10138813 937.36841
0.059763908 -3.5200973 -0.10167535 867
-0.052455664 -3.544224 -0.10359728 963.77777
-0.069511414 -3.5001674 -0.10253455 988.5
-0.19279051 -3.5499222 -0.10422389 940.45453
-0.35050309 -3.5938504 -0.106424 772.25
-0.39065444 -3.5591741 -0.11194888 903.28571
-0.54496849 -3.6234031 -0.10704879 806.75
-0.62858045 -3.5877247 -0.12087442 1174.5
-0.83621013 -3.5957141 -0.11055677 886
-1.1380395 -3.6516764 -0.10940601 756
-1.1550747 -3.6760068 -0.11375116 725
-1.5990702 -3.7315624 -0.11505672 569.83331
-2.2033243 -3.8046215 -0.11407546 281.75
-5.98634 -4.271183 -0.19679752 1683
0.45955336 -3.5827637 -0.09640979 709.40002
0.39557624 -3.56779 -0.096863396 752.79169
0.29186416 -3.5919766 -0.10303445 989.6875
0.20390379 -3.6063116 -0.10392532 1011.4667
0.10351598 -3.6173604 -0.10442147 899.23077
-0.017132878 -3.6316981 -0.1065627 974.61536
-0.13784003 -3.6796865 -0.10710685 928
-0.16304064 -3.6405985 -0.1080272 954.44446
-0.33053386 -3.6726749 -0.11066663 846.29999
-0.51547897 -3.6927125 -0.10784727 792.11108
-0.75790679 -3.7227836 -0.10685349 1004.625
-1.5774385 -3.8283162 -0.11814365 337
-2.1963377 -3.9034495 -0.11855731 296
-5.9772854 -4.3610668 -0.1997273 1721.5
0.50259268 -3.6630344 -0.098620631 734.76923
0.41752791 -3.6762323 -0.10070986 844.42859
0.31438792 -3.6880648 -0.1059634 1005.3125
0.21754384 -3.6999352 -0.10623311 939.69232
0.13912988 -3.6926243 -0.10780311 903.875
0.029812098 -3.7287538 -0.10982198 962
-0.1097914 -3.7391968 -0.10891328 934.72729
-0.28242576 -3.765512 -0.11139482 885.5
-0.47492397 -3.7821975 -0.10919772 783
-0.72457731 -3.8074887 -0.10859607 704
-0.73521984 -3.8613296 -0.11558168 854
-1.0429677 -3.8942778 -0.11282936 319.66666
-1.5527693 -3.9243562 -0.12119196 223.33333
-2.1788864 -4.0005417 -0.12206277 180.75
-4.1431365 -4.2445498 -0.21513784 419
-5.9595294 -4.4723911 -0.20301676 1687.3334
0.60152864 -3.7625544 -0.10591161 865.09998
0.52861369 -3.758991 -0.10193098 830
0.42489588 -3.7776098 -0.10802706 1022.4706
0.32535279 -3.7896566 -0.10878778 1018.5294
0.2161665 -3.8031347 -0.10950343 888.5625
0.091646075 -3.8274515 -0.11200097 945.55554
0.061083198 -3.7855542 -0.11175691 984.33331
-0.066449881 -3.8339303 -0.11340439 984.63635
-0.24632013 -3.8587432 -0.11609334 853.22223
-0.41872346 -3.8959076 -0.11144169 776
-0.44133842 -3.8750982 -0.11332753 849.25
-0.7028414 -3.9191301 -0.11575186 818.42859
-0.73092449 -3.8738434 -0.11605576 825
-1.0046071 -3.9596598 -0.11252913 322.33334
-1.0267473 -3.944402 -0.11455595 338
-1.5381767 -4.0243368 -0.12622783 253.60001
-2.1358318 -4.0786285 -0.12188749 128.66667
-5.946835 -4.5849338 -0.2067461 1394
0.62621164 -3.8557072 -0.13098529 1319.4166
0.53553319 -3.8646708 -0.11655145 1130.6957
0.42449665 -3.8771212 -0.11021253 1037.1666
0.32024741 -3.8988457 -0.11120875 935.79999
0.26977956 -3.8711028 -0.11090165 982.40002
0.14944327 -3.9083211 -0.11419049 999.5
0.0099288225 -3.9479089 -0.11580639 1024.375
-0.029191852 -3.9001188 -0.11595771 1031.2
-0.20652163 -3.9390609 -0.11934693 859.25
-0.21795273 -3.9579058 -0.12454955 928.79999
-0.38435805 -3.9581065 -0.11273218 744.33331
-0.41452372 -3.993711 -0.12297305 858.40002
-0.68150222 -4.0117273 -0.12185507 824.57141
-0.95927751 -4.0704918 -0.11564445 313
-1.4956874 -4.1344848 -0.12882802 268
-1.5143553 -4.1125026 -0.12958649 265.5
-2.1254539 -4.2246876 -0.12968248 123.5
0.89470446 -3.9370849 -0.10536024 1997
0.84042764 -3.9404678 -0.11603415 2400.7334
0.74148214 -3.9368761 -0.12215289 2235.1035
0.64523065 -3.9388199 -0.12610346 2112.6667
0.55160725 -3.9487281 -0.12205729 1820
0.45437205 -3.9767866 -0.116377 1121.2142
0.36099446 -3.9718966 -0.11377814 925.33331
0.22930682 -3.9995322 -0.11570609 987.71429
0.070284247 -4.0210776 -0.11666221 1015.75
-0.085692883 -4.0781488 -0.11748166 771
-0.1525768 -4.0425758 -0.12464297 861.83331
-0.3930546 -4.0686884 -0.1289731 911.66669
-0.40534198 -4.0928955 -0.13447431 988.5
-0.66880596 -4.1190834 -0.13176131 897.375
-0.9694432 -4.1427541 -0.12400646 311.33334
-1.4772669 -4.1956925 -0.13117045 271.66666
-2.1265655 -4.3310375 -0.13661796 160
1.6240437 -3.9679437 -0.10835569 1615
0.44153404 -4.0498071 -0.11674902 1005.875
0.33327699 -4.1127291 -0.12046885 1034.8572
0.28863001 -4.0691028 -0.11898161 1032
0.1435889 -4.1147757 -0.12056001 1037.4615
-0.051184773 -4.1309257 -0.12008527 814.36365
-0.27610672 -4.193964 -0.1260716 867
-0.34255993 -4.1605844 -0.132805 954.66669
-0.56489384 -4.2447295 -0.13003485 986.5
-0.61662543 -4.2061143 -0.13355683 981.28571
-0.95143902 -4.2903042 -0.13612616 410
-1.065626 -4.2860212 -0.15221044 470
-1.1012634 -4.2636352 -0.15516835 485.5
-1.5530058 -4.3732271 -0.15513325 392
-1.6194562 -4.3406672 -0.16088763 419.39999
-2.3580837 -4.4714899 -0.17056069 230
-2.3770885 -4.4533548 -0.17138588 217
1.9365184 -3.9642715 -0.11122362 745.5
1.619597 -3.9905155 -0.11678611 1854.5
0.37044334 -4.1450882 -0.1212799 1086.2
0.25827658 -4.2149057 -0.12070508 1228.9091
0.19762313 -4.1755986 -0.12298835 1084.5
0.05179882 -4.2351632 -0.12049647 1051.25
0.0023653507 -4.2073131 -0.12398604 894.79999
-0.21443844 -4.2472267 -0.12378456 977
-0.525195 -4.3070092 -0.13182965 1070
-0.8429426 -4.3594999 -0.12807027 681.5
-0.92062652 -4.3442178 -0.1373969 482.39999
-1.003986 -4.3203278 -0.14678997 499
-1.3383526 -4.4301796 -0.13322088 886.66669
-1.4016372 -4.4019442 -0.13860109 343.33334
-1.500141 -4.3895216 -0.14985178 418.66666
-2.0198383 -4.5017133 -0.13688527 426
-2.1204071 -4.4731336 -0.14548248 236.66667
-2.2263098 -4.4684563 -0.15636124 218
-2.3160167 -4.4800854 -0.16666114 230
0.14110172 -4.3396521 -0.12586324 1019
0.089706182 -4.3260417 -0.13152805 568.75
-0.14566672 -4.3636847 -0.13132259 648.5
-0.17777252 -4.3426485 -0.13301073 700.79999
-0.48854268 -4.4065399 -0.13950455 648
-3.5147777 -4.7873468 -0.18901382 143
-0.037863135 -4.4787693 -0.13460451 580
-0.09335804 -4.4419646 -0.13652086 650.29999
-0.4341203 -4.522069 -0.14766991 743.5
-0.47224247 -4.4730134 -0.14627352 681.66669
-3.514091 -4.8537931 -0.1926578 210.5
0.066985846 -4.5573215 -0.13396238 140
0.0093871355 -4.5231986 -0.13580421 427.22223
-0.31728852 -4.6101737 -0.14422563 699
-0.38484776 -4.5704613 -0.14771852 745
-0.58518922 -4.6167207 -0.18321249 1040.5
-0.77832401 -4.6382623 -0.15146708 589.25
-0.20504904 -4.6998153 -0.14321241 613.5
-0.25755823 -4.6563921 -0.1432941 660.375
-0.69789779 -4.7688203 -0.15737292 633
-0.76366866 -4.7280226 -0.16063032 692
-0.15002286 -4.750947 -0.14449999 286.5
-0.21122062 -4.7601471 -0.15366787 703
-0.5971297 -4.8383818 -0.15396108 487.5
-0.65886176 -4.8273544 -0.16007954 574
-0.74894583 -4.8217368 -0.17059413 842.33331
-0.81317389 -4.8048587 -0.1765776 943
-0.57645118 -4.9202499 -0.16246986 637.59998
-0.60534489 -4.880353 -0.16054243 557
-1.1502918 -4.9714622 -0.16403812 618.40002
-0.54063666 -5.0131536 -0.1710363 785.5
-1.1277279 -5.0644503 -0.17157383 724
-0.41935861 -5.1059532 -0.17059287 250.8
-0.51218474 -5.0939865 -0.17911798 876.66669
-1.0415756 -5.3039756 -0.18934372 447.5
-1.0565246 -5.2769585 -0.18777797 373
-1.2925004 -5.2747145 -0.21252474 856
-0.92282283 -5.3654246 -0.18450093 378
-1.1951729 -5.3689537 -0.21275863 583.5
-1.4352885 -5.4308434 -0.24518499 722
-1.791473 -5.4626074 -0.19199806 524
-1.8578979 -5.4540286 -0.19738291 451
-1.9877745 -5.4765048 -0.21153665 146.5
-0.8736068 -5.4732094 -0.19263607 727.5
-0.95778763 -5.4627857 -0.19959316 658.66669
-1.7180525 -5.5573082 -0.19395074 287
-1.7656938 -5.5347052 -0.19620135 307.66666
-0.77591383 -5.5342712 -0.19086093 215.5
-0.84317982 -5.5144153 -0.19473991 642
-1.5834774 -5.6447535 -0.19017309 285.75
-1.6260892 -5.6034174 -0.19000943 304
-1.4392661 -5.7512832 -0.18803227 223
-1.5363504 -5.7144365 -0.19276252 239
-1.2840365 -5.7904119 -0.17894228 413
-1.455597 -5.8362427 -0.19783545 420.66666
-1.4091471 -5.8740005 -0.19772351 355.5
-2.0456166 -6.7389665 -0.21453837 144.5
-2.0611873 -6.8265128 -0.22285971 90
-3.4698081 -8.2168236 -0.25792113 98.5
-3.5481596 -8.1746483 -0.25905541 96
-3.3598375 -8.2873821 -0.25714979 71.5
-3.4118252 -8.2488737 -0.25716555 70
-3.3258095 -8.3465586 -0.25937039 81
-7.0198731 4.5160894 0.15911362 53
-6.9464965 4.3574114 0.15884754 26
-6.9531722 4.1830893 0.15560055 22
-6.9363408 3.99213 0.15282393 14
-6.9045815 3.7930462 0.15037754 20
-2.4993191 1.7730973 0.11119301 3661.5
-3.579546 1.6854389 0.058887415 318.5
-2.5104127 1.6970088 0.11103164 1670
-7.0291867 0.98512793 0.09048932 34
-2.3985057 1.4419992 0.11737014 814
-2.4517589 1.3954937 0.11504062 1358
-2.5078082 1.4071414 0.11233313 1029
2.8303399 1.9288318 0.12700582 2540.6667
2.727972 1.9208624 0.1275185 2430.3333
2.6440473 1.9154079 0.12781066 2321
2.4909825 1.8888328 0.12872824 2144
2.4421582 1.8855355 0.12877083 2072
2.3291397 1.876931 0.1287891 1166
2.2323189 1.864825 0.1288583 1590
2.1181979 1.8358486 0.12934017 1610.5
1.7049053 1.8072174 0.12675592 485
1.6739931 1.7960384 0.1268152 1614
1.4052906 1.7556627 0.12458289 1387
1.346758 1.7633145 0.12332306 1858
1.2439148 1.7444751 0.12223747 1915
1.1562498 1.7372291 0.12085024 1930.5
1.0397445 1.7268913 0.11885329 2029.75
0.93811727 1.7157958 0.11703745 2307.6667
0.83666736 1.704664 0.11506712 2239.75
0.73658502 1.6820014 0.11342677 2046
0.66361034 1.6807244 0.11155494 2167
0.53412557 1.6618087 0.1086647 2117
0.47608662 1.6564615 0.1071743 2101
0.24257398 1.6357806 0.10062956 745
-0.17041135 1.5883224 0.087511905 2078.6667
-0.29193628 1.5789254 0.08303196 1895
-0.4369067 1.5422094 0.078296117 2029
-0.55861032 1.5250018 0.073617719 1549.3334
-0.78470623 1.5169857 0.063609414 2583
-0.88143647 1.5078981 0.059317492 2764
-0.92583263 1.4940097 0.05761715 2532
-1.9660238 1.35864 0.13770694 2260
-2.081902 1.3740633 0.13236311 3581
-2.1124673 1.3583744 0.1310432 3604
-2.8863254 1.2883499 0.094221793 3082
-2.9258986 1.2766135 0.092270233 1184
-7.0868735 0.76365781 0.083434083 133
2.8937335 1.9172533 0.12721258 2044
2.5856986 1.8813884 0.12905994 1508
1.2870303 1.6713264 0.12585238 1765
0.63131714 1.5915258 0.11408431 917
-0.80315769 1.41101 0.066188328 2343
-2.2893038 1.25367 0.12327943 3478
-6.1858683 0.71703148 0.11561751 454.5
-7.0092511 0.6067481 0.082769699 241
-6.2065778 0.64194441 0.11321982 446
-7.0142493 0.51867867 0.080576696 343.5
1.3131928 1.5110953 0.13251889 1464
0.44908786 1.3162019 0.119199 1222
0.77847129 1.2881424 0.12962374 1102
-6.9849572 0.35757327 0.077962153 534
0.40071261 1.1430585 0.12416201 2247
-0.61221349 1.061218 0.086599864 1403
-6.9719605 0.23498893 0.075595148 734
1.2049751 1.1188161 0.14575455 1150
0.46154547 1.1030929 0.12759802 2419
0.41114593 1.0922468 0.12640333 2587
-6.9516034 0.11108613 0.073445611 1084
1.3331497 1.053879 0.050103307 1715
0.23942685 0.9303546 0.12658635 1026
-0.25498378 0.89541793 0.10831695 1127
-1.0654908 0.80259418 0.071499802 241
-1.2943097 0.7503984 0.060167678 1348
-1.3207768 0.73973274 0.058932222 1983
-6.9369512 -0.0090506077 0.071143948 1136
2.0077894 1.0707681 0.054866634 2151.5
1.9426686 1.068197 0.054905303 1061
0.589293 0.82831717 0.04561431 1678
-0.57860839 0.67950916 0.1004786 1696
-1.1441578 0.64662695 0.071527101 288.75
-6.8923373 -0.082106829 0.071075462 552
0.70853078 0.84059215 0.048756532 880
-1.410314 0.53251147 0.059018962 1112
-6.9270225 -0.15417981 0.068033271 1637.5
1.1524231 0.75192022 0.065918945 877.5
0.066113114 0.58366179 0.039045863 623
-6.9176087 -0.26952815 0.065589078 1819.5
0.061865449 0.52239966 0.042440332 1287
-6.891376 -0.36155224 0.064329512 2005
1.9538151 0.59837317 0.083990835 1357
1.5875627 0.57023501 0.083998151 1363
-1.687219 0.230726 0.048619561 850
-6.8595538 -0.48162031 0.062571146 949
0.40378821 0.37739944 0.066386841 2140
-0.9852711 0.20221519 0.092633687 788
-1.3220962 0.12161732 0.074324422 697
-1.3432487 0.10815048 0.073309116 735
-2.0898633 0.017801285 0.025352441 645
-2.1661601 0.049560547 0.019497678 301
-4.5843701 -0.26384425 -0.0066752434 3517.5
-6.8533912 -0.56508923 0.060726188 1345
-4.5794301 -0.3747046 -0.0076995343 3569.3333
-6.8656926 -0.66963172 0.057633691 2388.5
-4.567884 -0.48689556 -0.0084095672 3691
-6.864449 -0.7506814 0.055629872 2450
2.0049157 0.2189281 0.026095212 299
1.1278627 0.16623425 0.024805062 1163
1.07007 0.14866638 0.024971157 1276
-4.5599327 -0.57473016 -0.0090806708 3693.5
2.3334455 0.17109561 0.025346726 183
2.1096945 0.13777065 0.031786323 300
-4.5493169 -0.66254377 -0.0096341819 3764
-4.5337739 -0.77157307 -0.010240607 3774.3333
-6.8062062 -1.0311501 0.050643533 2471
-4.5212169 -0.87780952 -0.011049315 3791.5
-6.7676616 -1.1707187 0.048467219 2233
-4.5156145 -0.95999324 -0.011973254 3773
-6.8019528 -1.2404498 0.045310594 3036
-6.8000436 -1.292559 0.043999657 3098
1.4900682 -0.36569381 0.011374012 690
1.3188846 -0.34441495 0.0073091835 508.5
1.2203677 -0.35978341 0.0073702186 562
-4.5013247 -1.0640023 -0.012764037 3744
-6.7901464 -1.3718529 0.042260692 3210
1.8999515 -0.39022064 0.011719234 633.5
1.8004034 -0.35862279 0.0096383542 624
1.7338767 -0.35075235 0.0094159544 583.33331
1.4646404 -0.37490916 0.012259632 652
-4.4916539 -1.1650603 -0.013850115 3752.5
-6.7769437 -1.4768665 0.039940357 3124
2.0885608 -0.46824384 0.016024977 456.5
2.0160892 -0.42312145 0.013020195 546.83331
-4.478539 -1.2657965 -0.014787391 3711
-6.7648358 -1.5808592 0.037580334 3141
2.0655992 -0.56316614 0.026635535 1119
1.8985425 -0.57208991 0.031405911 1526
1.8729135 -0.60850477 0.035794288 2322
0.093103647 -0.81941366 -0.0021058545 1095
-4.4673214 -1.3647183 -0.01586936 3734.5
-6.7546706 -1.6585658 0.035844311 3097
2.0384269 -0.61966419 0.064344205 2570.5
1.8844252 -0.62402534 0.098362677 1018
1.4559393 -0.73613191 -0.002963759 733.5
1.3078578 -0.74202919 -0.003382504 829
1.251794 -0.74239945 -0.0042610392 748
1.1473686 -0.75300407 -0.0050456077 723.66669
1.0573697 -0.76351738 -0.0062262341 698.16669
0.94720519 -0.77853417 -0.0081671104 695.25
0.89310122 -0.7922008 -0.008589834 698
0.74290395 -0.83870125 -0.009971071 776.33331
0.3223834 -0.8924849 0.05200085 3391.5
0.29725218 -0.87039566 0.04793378 1843
0.16267097 -0.92389727 0.043135256 2717
-0.0065691471 -0.92040157 -0.0013644695 794
-4.4569316 -1.4433308 -0.016685028 3825
-4.453897 -1.5005169 -0.017583989 3743
-4.9244266 -1.5749946 -0.048410166 153
-6.6691604 -1.7729375 0.035987198 1541
-6.7481065 -1.710079 0.034678474 3102
1.9759837 -0.7983098 -0.0029471368 869.25
1.883491 -0.80784655 0.0011606514 1493
1.7800677 -0.76859689 -0.0014841482 881.16669
1.6689677 -0.78268361 0.0022479966 807.79999
1.4223043 -0.80084944 0.0057153553 1164.5
1.3171268 -0.87119412 0.014397599 828
0.80475599 -0.91935778 0.056242608 935
0.56548822 -0.90017152 -0.012981731 816
0.16191399 -0.95541334 0.074349336 4225
-4.4380164 -1.5420752 -0.017401058 3497
-4.4731059 -1.5702542 -0.020140231 1348
-4.9407325 -1.6509694 -0.051015444 178
-6.718843 -1.8399552 0.032201812 2507
1.9739782 -0.8374157 0.002121456 563.5
1.8799639 -0.85620117 0.0075354576 1550.5
0.80743659 -1.0409091 0.040025547 2823.6001
-0.36687338 -1.1882541 -0.015577033 3774
-6.7218814 -1.9392 0.029300861 3144.5
1.4471716 -1.0311502 -0.011992443 1352
1.3822373 -1.0464308 0.014507495 1622.1666
1.3290172 -1.0534407 0.015186168 1976.5
1.1474305 -1.0378914 -0.014876649 686
0.80212766 -1.0815693 0.025808021 2615.3333
0.60652828 -1.1320926 0.019738451 1004.5
0.12506747 -1.1667603 -0.019040812 973
-0.31597793 -1.249169 0.053143062 3600
-0.37935793 -1.2216922 0.045371495 813
-3.0701551 -1.6397737 -0.045237519 64
-6.7157474 -2.0393026 0.026705876 3173.5
1.8790269 -1.1095229 -0.009179391 819.33331
1.8070558 -1.1057173 -0.0069608018 761.14288
1.708607 -1.0802164 -0.0078689009 817.33331
1.6080232 -1.0716138 -0.0070036575 798
0.23669887 -1.3076769 0.032884836 2901.5
0.11871171 -1.2802452 -0.0070464611 1162
-0.21363389 -1.3848784 0.016945146 3604
-6.6802754 -2.166857 0.02443587 2451
-6.7125955 -2.1139314 0.024700843 3208
1.9617722 -1.1805571 -0.0023819655 248
1.9220897 -1.147701 -0.0053254142 649
1.5728945 -1.2589751 -0.020162757 911
0.8328191 -1.3342526 -0.023883425 804.5
0.67712605 -1.3580281 0.010611281 3372
0.23731065 -1.3933311 0.018174969 2700.3333
0.091876268 -1.3565814 0.047399111 550
-0.18691051 -1.4337187 -0.002041474 3545.5
1.7943482 -1.3051486 -0.019568503 862.66669
1.7229774 -1.3001577 -0.017392538 830.55554
1.6301851 -1.289114 -0.016169645 911
0.71381879 -1.4301169 0.02455315 3070.3333
0.29621518 -1.5176713 0.038571417 1510
0.21587622 -1.5147631 0.007090725 2951.5
0.15144622 -1.4590371 -0.030876823 1849
-0.2046957 -1.5830673 0.0077249706 2937.5
-0.22543848 -1.5801226 0.0048213378 2770.5
1.9892666 -1.3962109 -0.015668776 229
1.9324124 -1.375591 -0.015274171 488.66666
1.8563052 -1.421423 -0.0027112663 108
1.57337 -1.4440814 -0.025888257 1013
1.4056259 -1.434261 -0.02482181 932
0.85684818 -1.522578 -0.0012465864 1007.6667
0.3015306 -1.545283 0.020716898 3750
-0.031053662 -1.6224945 -0.036637489 885
1.8604867 -1.5164371 -0.026468672 662
1.7175982 -1.4790447 -0.024830703 925.40002
1.679587 -1.4680535 -0.025144074 909.5
1.5346482 -1.5205905 0.0034244731 1306.3334
1.4040101 -1.5351174 0.032721743 844
0.87957907 -1.640029 -0.018075127 1482.5
0.2319746 -1.6651775 -0.035501346 1005
0.029229879 -1.7221224 -0.01657917 907
-4.4159527 -2.2874503 -0.03261099 814.5
1.9073714 -1.5626196 -0.021275289 261
1.8901385 -1.5281856 -0.026427142 485
1.6668818 -1.6128849 -0.031427257 970
1.5279084 -1.6023316 -0.0098387226 2103.1667
1.4991215 -1.6042472 -0.026104458 1100
1.4042823 -1.6163714 -0.021373153 1034
0.90119636 -1.7317038 0.022212192 3086.9231
0.33284688 -1.8085752 -0.037135802 1144
-0.23392355 -1.8933371 0.048740566 2452
-0.34580815 -1.8526331 0.031544425 1755
-4.3744941 -2.3629572 -0.031898879 957.5
1.7970446 -1.6635348 -0.029431041 549
1.5457311 -1.7345818 -0.029567637 1632
1.4468975 -1.7443427 0.0057786852 1847.4375
1.40609 -1.7463276 0.0090785325 2000.5714
0.76169538 -1.8602829 0.0087372735 1869
0.36304498 -1.888 0.015827663 1804
0.31298065 -1.8361011 -0.035993624 1239
-0.14692688 -1.9856918 0.023406565 3424
-0.22652042 -1.9174833 -0.016468287 3332
-3.1323967 -2.3580434 -0.061359938 79
-4.3481555 -2.4528508 -0.032566056 1492.3334
1.5757755 -1.8369135 -0.035310995 1531
0.78513354 -1.8992349 0.0065223575 2976.3999
0.44933677 -1.9803188 0.026020154 2743
0.44054151 -1.987669 0.0015331656 3351.75
0.24345493 -1.9675977 0.042634517 3599
0.23282659 -1.9623806 -0.0022186041 3188.3999
-0.13374889 -2.0118916 -0.00066401064 3207.3333
-3.1931634 -2.4320865 -0.068251431 97.5
-4.338789 -2.5574093 -0.034768358 297.66666
1.6896769 -1.8770775 -0.0042058975 360
1.5691642 -1.9260451 -0.038705941 1597
1.0733047 -1.9809544 -0.044679351 703
-3.1994185 -2.5417516 -0.07127133 94
-3.2228742 -2.4836388 -0.071994983 94
-4.3221674 -2.6618581 -0.036592368 230.66667
-4.3215394 -2.7645664 -0.039471257 214.33333
0.557096 -2.2591376 -0.052476108 658
-4.3110385 -2.8674436 -0.041811649 262.33334
-4.299305 -2.9697742 -0.044142582 292
0.44748175 -2.4795823 -0.059927322 689.38464
0.37294459 -2.4879508 -0.061333001 778.76923
0.28534651 -2.5052681 -0.061916463 884
-4.2767096 -3.0716009 -0.045850743 355.66666
0.42445517 -2.5234752 -0.061833192 690.5
0.3804239 -2.5680408 -0.063306838 718.29169
0.29917562 -2.6028688 -0.06535922 788.20001
-4.2642198 -3.1729147 -0.048271962 422.66666
0.36172485 -2.6529095 -0.065957867 686.18182
0.30164993 -2.6581604 -0.066996463 750.14288
-4.2551932 -3.2739835 -0.050990552 396
-5.0122576 -3.3841925 -0.1028685 275
0.31598592 -2.7926412 -0.071083076 665.79999
-5.0434628 -3.4440424 -0.10687744 1390.5
0.29928327 -2.8815145 -0.073904425 661.30768
0.23111403 -2.9342802 -0.075926118 698.25
0.29291296 -2.986619 -0.076002389 658.66669
0.22778285 -3.0266862 -0.078731 709.16669
0.29426348 -3.0872092 -0.079164714 641.5
0.22959363 -3.0848601 -0.080726348 699
0.30584073 -3.1813943 -0.081715792 661.33331
0.24389255 -3.1982117 -0.083510108 656
0.31725347 -3.2602587 -0.085960574 625.40002
-3.0860281 -3.703474 -0.099126346 99
-4.9169164 -3.9907804 -0.11851695 105
-0.73307168 -3.6199756 -0.076951675 2668.3333
-0.78456271 -3.6394439 -0.052858658 1017.6667
-3.0814457 -3.9220591 -0.10823983 68
0.48065853 -3.6086352 -0.096153185 686.33331
-0.77880585 -3.7105184 -0.057307743 492.79999
0.52738619 -3.6810215 -0.097331978 689.63635
-1.00239 -3.8319426 -0.10150549 269
-1.0316347 -3.8581753 -0.10813019 303
-2.1153049 -3.9824736 -0.11404631 104
-4.1451864 -4.2650352 -0.080785073 1635.5
0.59064722 -3.730793 -0.098494291 733.42859
0.52818108 -3.7586057 -0.10047798 788.16669
-0.97979081 -3.9735096 -0.10995799 278.5
-4.139163 -4.3508749 -0.083969727 1054
0.28729343 -3.8621089 -0.10463431 851
-0.95386398 -4.0487933 -0.11285412 289.5
-4.1333928 -4.4548736 -0.087999545 1065.6666
1.4066172 -3.8878956 -0.03225125 2072.1428
1.343379 -3.897723 -0.03552717 2142.9299
1.2435988 -3.9121404 -0.041066613 2158.074
1.1423516 -3.924607 -0.043785997 2157.0657
1.0466155 -3.9354599 -0.049859174 2184.4031
0.94509345 -3.9449275 -0.057947122 2192.3999
0.84889311 -3.954566 -0.058565568 2434.5518
0.74575162 -3.9632764 -0.054891638 2721.4707
0.64855933 -3.9710236 -0.057799906 2853.8379
0.56730139 -3.9744458 -0.056170352 2799.7036
-4.129117 -4.560143 -0.092262037 549
1.63209 -3.9584141 -0.055952601 1963.2307
-4.1224766 -4.6655884 -0.09647131 482.66666
1.9600785 -3.9566948 -0.057693601 577.33331
1.882535 -3.9606118 -0.060659613 2393.5
1.6481266 -4.0315228 -0.056459345 1798.0834
0.41572034 -4.1313624 -0.10962316 1026
0.31779301 -4.2386165 -0.11576157 1155
-0.66016686 -4.30194 -0.039342936 713
-0.6980027 -4.3302994 -0.093157217 749.40002
-0.8109771 -4.3662672 -0.093625933 1328
-0.91776478 -4.3983669 -0.079193443 1290
-1.0218917 -4.4080181 -0.027578082 1706
-1.1091007 -4.4209771 -0.070791744 1471.8334
-1.2150477 -4.4332414 -0.083587974 1359.25
-1.2947818 -4.4413409 -0.081141509 1324.3334
-1.3914136 -4.4500599 -0.068083003 1177.5
-1.4948863 -4.4627171 -0.079610094 966
-1.5942024 -4.4705548 -0.090393618 925.5
-1.7070271 -4.4825182 -0.1029191 824
-1.8351532 -4.4959059 -0.08892142 808
-1.907472 -4.49932 -0.081911482 754
-2.0162697 -4.5148787 -0.048736267 853
-2.1289477 -4.528995 -0.058838964 784
-2.2019525 -4.5361862 -0.06528078 763
-2.3246856 -4.5507884 -0.076280102 571.5
-2.4645004 -4.5702634 -0.088998243 400
-2.5925441 -4.5820851 -0.10032273 278.5
-2.7386761 -4.5987921 -0.11345463 221
-4.1178741 -4.7545061 -0.10014661 567
1.6623254 -4.0905228 -0.05561398 2754.3333
0.259817 -4.2979813 -0.098903388 2448.5
0.20978081 -4.2970095 -0.10645169 2347.5
-0.6386019 -4.4436059 -0.10958606 954
-0.67325127 -4.4061623 -0.10989802 552.5
-0.8096565 -4.4388967 -0.070350565 215
-0.92228901 -4.4014759 -0.080023699 1285
-1.0165704 -4.4129648 -0.092409387 1227.5
-3.5432129 -4.7998939 -0.067016549 674.5
-4.1006932 -4.8399148 -0.10295404 659.66669
0.13330615 -4.382587 -0.07093814 284
-0.6740402 -4.5015197 -0.10086206 448.66666
-0.7642411 -4.5193667 -0.073209286 257.79999
-0.92236745 -4.5657215 -0.09610793 257.5
-3.5186582 -4.8743577 -0.069025502 550
-3.5317969 -4.8458252 -0.068475544 689
-4.0791197 -4.924068 -0.10549095 673.5
-0.77372825 -4.9054189 -0.11586401 2130.3333
-0.87326729 -4.9501257 -0.13146415 1251
-0.93788636 -4.9375896 -0.065889373 2924.6667
-1.5891777 -5.4194078 -0.077638857 1755
-1.8640155 -5.5234699 -0.1053953 2030
-2.0296259 -5.5267448 -0.11780927 548
-2.0782981 -5.5317631 -0.12178586 280
-1.5717641 -5.5568695 -0.086977422 2221
-1.8077463 -5.5405426 -0.10258862 1675
-1.8408903 -5.536211 -0.10466694 1904
-2.0066595 -5.5730591 -0.11953802 787.66669
-0.87069023 -5.5637207 -0.12228952 2164
-0.96584594 -5.5647545 -0.13000003 2854.3333
-1.0382189 -5.5681529 -0.13622594 2755.5
-1.3052412 -5.567842 -0.15855889 244
-1.3893002 -5.605793 -0.078165054 1561
-1.4512378 -5.6260738 -0.084041923 1691.5
-1.5662824 -5.614975 -0.091133788 2622.6667
-0.88569152 -5.6798701 -0.13559905 561
-0.88266098 -5.7266006 -0.14028451 642
-1.4685403 -5.8517675 -0.10338718 2407
-1.500475 -5.7985287 -0.10121499 2383.5
-1.4373852 -5.9065094 -0.10579432 2295
-1.5061451 -6.0539865 -0.12248498 359
-2.3664274 -6.5202565 -0.094945319 1703
-2.4047079 -6.6009345 -0.10194457 990
-1.6226383 -6.5341043 -0.17029244 1212
-2.3197198 -6.6709065 -0.10206771 145
-2.4159455 -6.6562405 -0.10598755 230
-2.2424126 -6.7031035 -0.10025963 100
-2.4364853 -6.7217054 -0.11114929 95
-1.6988765 -6.7191563 -0.19085941 25
-4.7841325 1.5030801 0.18168125 3163.5
-4.8706517 1.4807389 0.17825148 1610
-4.8739557 1.4255078 0.1770952 2176
-4.9699731 1.4085701 0.17341229 2462
-5.0759926 1.3972814 0.16947463 2468
-5.1761603 1.3800142 0.16561309 2482
-5.2947631 1.3737199 0.16130173 2316
-5.3665776 1.3634818 0.15855813 2377
-5.4674067 1.3420608 0.15455601 2352.5
-5.5902858 1.3333075 0.15000796 2083
-5.6515722 1.3132102 0.14741912 1105
-5.7651787 1.2953279 0.14299464 1376
-5.672101 1.1504896 0.14339712 1162
-5.683857 1.0998232 0.14194024 1354
-5.8367777 1.0741408 0.13589612 129
-5.9379945 1.0162082 0.13103324 990
0.017358661 1.6807516 0.20993039 216
-2.9409456 1.3127253 0.24063659 1646.5
-5.9626551 0.97211194 0.12921485 905
-6.0280824 0.92143917 0.12576741 492
2.8280401 1.9220498 0.25407714 2640.6667
2.7258182 1.9143798 0.25365913 2517.3333
2.6422451 1.9100354 0.25323555 2471
2.4903226 1.8878005 0.25250614 2394
2.459173 1.8915012 0.2522274 2377
2.2925131 1.8562295 0.25132057 2017
2.2297442 1.8549988 0.25075868 1955.3334
2.1335478 1.8389361 0.25002638 1140.5
1.6729035 1.7950838 0.24497339 1290
1.3305311 1.7500002 0.24014029 1653
1.2279551 1.7461784 0.23835015 1827
1.1113127 1.7248781 0.23643088 3771
1.0239198 1.7206705 0.23473528 1762.6666
0.93714964 1.7062662 0.23312765 2103.3333
0.83559108 1.6985662 0.23102155 2155.25
0.7051574 1.6864917 0.22821027 2203
0.6764797 1.6811454 0.22760677 2162
0.54715955 1.6605022 0.22473189 2171.5
0.46039748 1.6507742 0.22266236 2194.5
0.257653 1.6252744 0.21757182 1733
-0.17343366 1.5905087 0.20520541 2309
-0.260656 1.5712817 0.20264143 1892
-0.32178748 1.5668037 0.20069802 920
-0.44222653 1.5207684 0.19719008 1810
-0.56646121 1.5382736 0.19269863 2070.6667
-0.63230908 1.5402133 0.19035432 393
-0.78736365 1.5162981 0.18499345 2987
-0.81437361 1.5019619 0.18414265 2761
-0.94149554 1.4846809 0.1795319 2466.6667
-1.0606447 1.4815457 0.17497057 3175
-1.1306614 1.481312 0.17222595 2233.5
-1.2245344 1.4575298 0.16869763 1580
-1.3318588 1.4237831 0.16462076 2496
-2.8417439 1.2885296 0.24347362 2678
-5.5774541 0.92374253 0.1421532 39
-6.0694237 0.85725021 0.1228975 332
2.5771587 1.8514044 0.25356862 975
2.0676491 1.8141649 0.24967352 1188
1.3152225 1.7089703 0.24046561 1673
1.1412748 1.6865823 0.23756206 2914
0.65443707 1.6230423 0.22789034 1101
-0.81856573 1.3668463 0.18535754 2294
0.76477909 1.5350411 0.23172385 1268.5
1.3377593 1.4175136 0.24502444 1429
0.4359926 1.2296507 0.22774893 1849
-0.6783601 1.1332572 0.19297054 1507
-5.4644971 0.48265386 0.13696668 863
-6.1395478 0.41397405 0.11065265 1385.5
0.41622591 1.1239779 0.2286379 2537.5
-5.4326053 0.41393757 0.13665497 416
-1.0867926 0.88700223 0.17909238 497
-5.7225451 0.29749489 0.12345979 185
1.9456756 1.0980942 0.15604934 631
1.356353 1.0763605 0.15008608 1904
1.1787372 1.0922163 0.24677306 1218
0.23051763 0.9581964 0.22555891 1097
-0.2331177 0.90430522 0.21141323 1123
-1.058215 0.78528547 0.18108511 405
-1.3431655 0.76765275 0.16900277 2387
1.9145017 1.0668457 0.15701485 429
0.70447171 0.84928131 0.14441657 1144
0.58437335 0.83989286 0.14128613 701
-0.61043489 0.68140101 0.20000643 1761
-1.1470038 0.67102432 0.17817548 947
2.1729751 0.94398737 0.16285241 618
0.55763388 0.80099154 0.20517662 1320
-1.0674556 0.59615588 0.18211892 1299
-1.1504785 0.60252094 0.17850217 504
-1.1885039 0.58746719 0.17695138 271
-1.4100336 0.52739286 0.16743821 1109
1.1378753 0.76885009 0.15799326 1017
-2.2363968 0.30794835 0.12805703 756
-5.679915 -0.13072324 0.1153729 190
0.10061514 0.53959632 0.16599447 1133.3334
-1.7047368 0.24588227 0.15470126 392
-5.1954365 -0.14640999 0.13303161 174
-5.8456917 -0.26348162 0.10608638 1107
1.9342121 0.62594748 0.17375028 1582
0.38825428 0.42898655 0.15023682 1621
-1.0082856 0.23134017 0.18716389 763
-1.7220699 0.22480321 0.15391073 594
-1.3144642 0.14766669 0.17368764 883
-2.0640883 0.027418137 0.13693503 1024
-5.6012244 -0.45529795 0.1107273 792
-5.1849456 -0.43052506 0.12690938 1359
-5.1500611 -0.9770242 0.11512341 1310
-5.3256187 -1.2274498 0.1021601 2172
-6.0061836 -1.2773159 0.074855231 2641
-5.3181863 -1.2726747 0.10128649 1653
2.0361221 -0.64953518 0.15897065 2685
1.8674264 -0.64716268 0.14036191 1988.3334
0.31441534 -0.91557312 0.13803291 1873
0.33328092 -0.92368221 0.13954234 3369
0.16697049 -0.98433352 0.13300034 2713.5
-0.16645491 -1.0137562 0.1421327 3173
-4.4392405 -1.5458896 0.12783241 3592
-4.4908304 -1.5698668 0.12524095 1728
0.78155786 -1.0575083 0.11987834 2390
-0.39059436 -1.2121735 0.10315263 561
1.3722552 -1.0721498 0.11722746 2039.7142
1.3267586 -1.0760517 0.089668773 2371
0.80202138 -1.0745374 0.15258881 2813.125
-0.34904015 -1.2402788 0.16648111 4437
1.918169 -1.0948813 0.15343195 719.66669
1.3629725 -1.0965962 0.13983533 2521.3333
1.3250897 -1.102664 0.13991565 2295
0.27020025 -1.3244646 0.15724751 2528
0.25425351 -1.3269242 0.12442004 2929
-0.28310549 -1.3112355 0.11581833 4069
0.66975439 -1.3770578 0.097899891 1810
0.24086559 -1.3975027 0.12805703 2329.3333
-0.1702925 -1.4181411 0.11188912 2729.3333
0.70719433 -1.4561412 0.12900656 2951.5
0.29566991 -1.520437 0.10364344 3411
0.22850978 -1.4984832 0.10738499 3093.75
0.17836142 -1.5240947 0.093149878 2674.5
-0.20186114 -1.5738012 0.13254833 260
0.29661167 -1.5433718 0.12726411 1712
0.19519341 -1.5515835 0.16315392 3702
-0.19471633 -1.5975043 0.10932801 3700.5
-0.21123433 -1.5986356 0.10781998 1495
1.5370018 -1.5706567 0.073055215 2325
1.534021 -1.6432633 0.1256547 2424
1.4772778 -1.648906 0.086435638 554
1.3841221 -1.6823035 0.12547785 813.33331
0.89132643 -1.7235222 0.11749423 2972.5293
-0.23531687 -1.8950456 0.11725237 2780
-0.28958547 -1.8836825 0.1343421 891
1.4422522 -1.7187998 0.11444326 2290
1.4031105 -1.7210543 0.11498948 2425.1667
0.76127112 -1.8590746 0.12336848 1145.8572
0.21208012 -1.9293413 0.12547806 1519.1666
-0.14728546 -1.9692624 0.11800442 3646
-0.19935501 -1.9255049 0.09978164 2739.25
-4.3385296 -2.4747584 0.10634194 3995.5
0.77099216 -1.8882438 0.098153897 3342
0.45099914 -1.9619 0.10930223 2906.8333
0.43808353 -1.9589071 0.10228536 1771.25
0.21748853 -1.9492066 0.091161184 3117
-4.3358326 -2.5612214 0.10393182 4215.6665
-4.3228426 -2.6652594 0.10137553 4291
-4.3149047 -2.7683129 0.098613538 4119
-4.2987361 -2.8711534 0.096139275 4107.3335
-4.2850003 -2.9732494 0.093554609 3952
-4.2703862 -3.0748141 0.090982176 3858.3333
-4.2589045 -3.1759462 0.088263236 3747.3333
-4.2449021 -3.2766454 0.085617714 3644.3333
-4.3808122 -3.3518419 0.077933319 1760
-5.0059414 -3.4258261 0.05127193 2524
-5.1070313 -3.4713011 0.045877315 3579
-5.9231591 -3.5719199 0.010928564 1839
-6.0252223 -3.6244552 0.0052567944 4919
-6.0208468 -3.6914067 0.0032358989 4913.5
-6.0140963 -3.7806561 0.0005589202 5046.5
-6.0022793 -3.86937 -0.0019263923 4923
-5.9928608 -3.9809134 -0.005294852 4857
-5.9847994 -4.0928249 -0.0087610409 4847
-5.976563 -4.1822629 -0.011487972 4773.5
-5.9701734 -4.27215 -0.014324144 4804
-5.9601021 -4.3844495 -0.017819759 4754.3335
-4.132237 -4.2473812 0.057287298 2082
-5.9465976 -4.4963856 -0.021203388 4717.5
-5.9231143 -4.5833464 -0.023358166 3970
-5.9343724 -4.7014513 -0.027974714 2947
1.4091583 -3.8895056 0.031855427 2004.4286
1.3405406 -3.8926339 0.05208423 2446.021
1.2416451 -3.9048476 0.048079163 2456.9443
1.1458317 -3.9178259 0.046883255 2449.3545
1.0439667 -3.9274554 0.043291613 2445.9553
0.94463044 -3.936028 0.047972418 2525.1562
0.84421426 -3.9436848 0.04356382 2665.6897
0.74208629 -3.9491127 0.046968013 2899.8298
0.64766288 -3.9569581 0.032851852 3011.1943
0.56127048 -3.9640214 0.046397209 2711.3044
-5.9273272 -4.7695212 -0.030134212 2957.5
1.6361742 -3.9610996 0.027110286 1945.2
1.4192967 -3.9181046 0.080108173 949
0.61356533 -4.0232363 0.068185411 568
0.58563769 -4.0195837 0.065734021 720
-4.2928691 -4.7014275 0.034725353 499
-4.5516267 -4.721602 0.024142653 243
-5.9135036 -4.8828359 -0.033677198 2940.3333
1.9187632 -3.955848 0.042877235 556
1.8913248 -3.9783187 0.041108519 1470
1.6430217 -4.0263109 0.018179476 2723.5
-0.74683416 -4.3787694 0.0018440783 3232
-0.82377422 -4.3850904 -0.0061729401 1885
-0.92268574 -4.3989935 0.01462955 1734.25
-0.98820889 -4.4072633 0.0083145946 1735
-1.1070515 -4.4223375 0.030321687 1640.3334
-1.2177173 -4.4374328 0.02059716 1622
-1.3044153 -4.4458542 0.013168633 1535
-1.3951975 -4.4542246 0.0053878948 1463
-1.5197133 -4.4673414 0.013660304 1339.75
-1.6138965 -4.4799118 0.038267002 1226.6666
-1.7066263 -4.4852934 0.018519744 1194.25
-1.8154196 -4.4966397 0.024218842 1111.3334
-1.9066898 -4.501472 0.046102904 1027
